-2092.312,-2092.936,-2093.56,-2093.408,-2093.256,-2093.104,-2092.952,-2092.8,-2092.648,-2092.496,-2092.344,-2092.192,-2092.04,-2090.856,-2089.672,-2088.488,-2087.304,-2086.12,-2084.936,-2083.752,-2082.568,-2081.384,-2080.2,-2078.84,-2077.48,-2076.12,-2074.76,-2073.4,-2072.04,-2070.68,-2069.32,-2067.96,-2066.6,-2065.528,-2064.456,-2063.384,-2062.312,-2061.24,-2060.168,-2059.096,-2058.024,-2056.952,-2055.88,-2054.744,-2053.608,-2052.472,-2051.336,-2050.2,-2049.064,-2047.928,-2046.792,-2045.656,-2044.52,-2037.564,-2030.608,-2023.652,-2016.696,-2009.74,-2002.784,-1995.828,-1988.872,-1981.916,-1974.96,-1967.044,-1959.128,-1951.212,-1943.296,-1935.38,-1927.464,-1919.548,-1911.632,-1903.716,-1895.8,-1883.348,-1870.896,-1858.444,-1845.992,-1833.54,-1821.088,-1808.636,-1796.184,-1783.732,-1771.28,-1769.44,-1767.6,-1765.76,-1763.92,-1762.08,-1760.24,-1758.4,-1756.56,-1754.72,-1752.88,-1756.772,-1760.664,-1764.556,-1768.448,-1772.34,-1776.232,-1780.124,-1784.016,-1787.908,-1791.8,-1797.92,-1804.04,-1810.16,-1816.28,-1822.4,-1828.52,-1834.64,-1840.76,-1846.88,-1853,-1861.424,-1869.848,-1878.272,-1886.696,-1895.12,-1903.544,-1911.968,-1920.392,-1928.816,-1937.24,-1946.312,-1955.384,-1964.456,-1973.528,-1982.6,-1991.672,-2000.744,-2009.816,-2018.888,-2027.96,-2037.492,-2047.024,-2056.556,-2066.088,-2075.62,-2085.152,-2094.684,-2104.216,-2113.748,-2123.28,-2129.76,-2136.24,-2142.72,-2149.2,-2155.68,-2162.16,-2168.64,-2175.12,-2181.6,-2188.08,-2195.112,-2202.144,-2209.176,-2216.208,-2223.24,-2230.272,-2237.304,-2244.336,-2251.368,-2258.4,-2264.836,-2271.272,-2277.708,-2284.144,-2290.58,-2297.016,-2303.452,-2309.888,-2316.324,-2322.76,-2326.92,-2331.08,-2335.24,-2339.4,-2343.56,-2347.72,-2351.88,-2356.04,-2360.2,-2364.36,-2363.756,-2363.152,-2362.548,-2361.944,-2361.34,-2360.736,-2360.132,-2359.528,-2358.924,-2358.32,-2363.912,-2369.504,-2375.096,-2380.688,-2386.28,-2391.872,-2397.464,-2403.056,-2408.648,-2414.24,-2420.384,-2426.528,-2432.672,-2438.816,-2444.96,-2451.104,-2457.248,-2463.392,-2469.536,-2475.68,-2477.388,-2479.096,-2480.804,-2482.512,-2484.22,-2485.928,-2487.636,-2489.344,-2491.052,-2492.76,-2493.42,-2494.08,-2494.74,-2495.4,-2496.06,-2496.72,-2497.38,-2498.04,-2498.7,-2499.36,-2500.636,-2501.912,-2503.188,-2504.464,-2505.74,-2507.016,-2508.292,-2509.568,-2510.844,-2512.12,-2513.308,-2514.496,-2515.684,-2516.872,-2518.06,-2519.248,-2520.436,-2521.624,-2522.812,-2524,-2525.212,-2526.424,-2527.636,-2528.848,-2530.06,-2531.272,-2532.484,-2533.696,-2534.908,-2536.12,-2537.432,-2538.744,-2540.056,-2541.368,-2542.68,-2543.992,-2545.304,-2546.616,-2547.928,-2549.24,-2550.716,-2552.192,-2553.668,-2555.144,-2556.62,-2558.096,-2559.572,-2561.048,-2562.524,-2564,-2564.548,-2565.096,-2565.644,-2566.192,-2566.74,-2567.288,-2567.836,-2568.384,-2568.932,-2569.48,-2570.844,-2572.208,-2573.572,-2574.936,-2576.3,-2577.664,-2579.028,-2580.392,-2581.756,-2583.12,-2583.468,-2583.816,-2584.164,-2584.512,-2584.86,-2585.208,-2585.556,-2585.904,-2586.252,-2586.6,-2586.988,-2587.376,-2587.764
-2091.178,-2091.784,-2092.39,-2092.202,-2092.014,-2091.826,-2091.638,-2091.45,-2091.262,-2091.074,-2090.886,-2090.698,-2090.51,-2089.389,-2088.268,-2087.147,-2086.026,-2084.905,-2083.784,-2082.663,-2081.542,-2080.421,-2079.3,-2077.985,-2076.67,-2075.355,-2074.04,-2072.725,-2071.41,-2070.095,-2068.78,-2067.465,-2066.15,-2065.132,-2064.114,-2063.096,-2062.078,-2061.06,-2060.042,-2059.024,-2058.006,-2056.988,-2055.97,-2054.861,-2053.752,-2052.643,-2051.534,-2050.425,-2049.316,-2048.207,-2047.098,-2045.989,-2044.88,-2037.816,-2030.752,-2023.688,-2016.624,-2009.56,-2002.496,-1995.432,-1988.368,-1981.304,-1974.24,-1966.261,-1958.282,-1950.303,-1942.324,-1934.345,-1926.366,-1918.387,-1910.408,-1902.429,-1894.45,-1881.962,-1869.474,-1856.986,-1844.498,-1832.01,-1819.522,-1807.034,-1794.546,-1782.058,-1769.57,-1767.685,-1765.8,-1763.915,-1762.03,-1760.145,-1758.26,-1756.375,-1754.49,-1752.605,-1750.72,-1754.693,-1758.666,-1762.639,-1766.612,-1770.585,-1774.558,-1778.531,-1782.504,-1786.477,-1790.45,-1796.705,-1802.96,-1809.215,-1815.47,-1821.725,-1827.98,-1834.235,-1840.49,-1846.745,-1853,-1861.631,-1870.262,-1878.893,-1887.524,-1896.155,-1904.786,-1913.417,-1922.048,-1930.679,-1939.31,-1948.553,-1957.796,-1967.039,-1976.282,-1985.525,-1994.768,-2004.011,-2013.254,-2022.497,-2031.74,-2041.398,-2051.056,-2060.714,-2070.372,-2080.03,-2089.688,-2099.346,-2109.004,-2118.662,-2128.32,-2134.665,-2141.01,-2147.355,-2153.7,-2160.045,-2166.39,-2172.735,-2179.08,-2185.425,-2191.77,-2198.703,-2205.636,-2212.569,-2219.502,-2226.435,-2233.368,-2240.301,-2247.234,-2254.167,-2261.1,-2267.509,-2273.918,-2280.327,-2286.736,-2293.145,-2299.554,-2305.963,-2312.372,-2318.781,-2325.19,-2329.305,-2333.42,-2337.535,-2341.65,-2345.765,-2349.88,-2353.995,-2358.11,-2362.225,-2366.34,-2366.114,-2365.888,-2365.662,-2365.436,-2365.21,-2364.984,-2364.758,-2364.532,-2364.306,-2364.08,-2369.303,-2374.526,-2379.749,-2384.972,-2390.195,-2395.418,-2400.641,-2405.864,-2411.087,-2416.31,-2422.121,-2427.932,-2433.743,-2439.554,-2445.365,-2451.176,-2456.987,-2462.798,-2468.609,-2474.42,-2476.272,-2478.124,-2479.976,-2481.828,-2483.68,-2485.532,-2487.384,-2489.236,-2491.088,-2492.94,-2493.555,-2494.17,-2494.785,-2495.4,-2496.015,-2496.63,-2497.245,-2497.86,-2498.475,-2499.09,-2500.384,-2501.678,-2502.972,-2504.266,-2505.56,-2506.854,-2508.148,-2509.442,-2510.736,-2512.03,-2513.227,-2514.424,-2515.621,-2516.818,-2518.015,-2519.212,-2520.409,-2521.606,-2522.803,-2524,-2525.203,-2526.406,-2527.609,-2528.812,-2530.015,-2531.218,-2532.421,-2533.624,-2534.827,-2536.03,-2537.333,-2538.636,-2539.939,-2541.242,-2542.545,-2543.848,-2545.151,-2546.454,-2547.757,-2549.06,-2550.554,-2552.048,-2553.542,-2555.036,-2556.53,-2558.024,-2559.518,-2561.012,-2562.506,-2564,-2564.512,-2565.024,-2565.536,-2566.048,-2566.56,-2567.072,-2567.584,-2568.096,-2568.608,-2569.12,-2570.511,-2571.902,-2573.293,-2574.684,-2576.075,-2577.466,-2578.857,-2580.248,-2581.639,-2583.03,-2583.342,-2583.654,-2583.966,-2584.278,-2584.59,-2584.902,-2585.214,-2585.526,-2585.838,-2586.15,-2586.547,-2586.944,-2587.341
-2090.068,-2090.674,-2091.28,-2091.14,-2091,-2090.86,-2090.72,-2090.58,-2090.44,-2090.3,-2090.16,-2090.02,-2089.88,-2088.696,-2087.512,-2086.328,-2085.144,-2083.96,-2082.776,-2081.592,-2080.408,-2079.224,-2078.04,-2076.734,-2075.428,-2074.122,-2072.816,-2071.51,-2070.204,-2068.898,-2067.592,-2066.286,-2064.98,-2063.968,-2062.956,-2061.944,-2060.932,-2059.92,-2058.908,-2057.896,-2056.884,-2055.872,-2054.86,-2053.604,-2052.348,-2051.092,-2049.836,-2048.58,-2047.324,-2046.068,-2044.812,-2043.556,-2042.3,-2035.182,-2028.064,-2020.946,-2013.828,-2006.71,-1999.592,-1992.474,-1985.356,-1978.238,-1971.12,-1963.072,-1955.024,-1946.976,-1938.928,-1930.88,-1922.832,-1914.784,-1906.736,-1898.688,-1890.64,-1878.428,-1866.216,-1854.004,-1841.792,-1829.58,-1817.368,-1805.156,-1792.944,-1780.732,-1768.52,-1766.512,-1764.504,-1762.496,-1760.488,-1758.48,-1756.472,-1754.464,-1752.456,-1750.448,-1748.44,-1752.542,-1756.644,-1760.746,-1764.848,-1768.95,-1773.052,-1777.154,-1781.256,-1785.358,-1789.46,-1795.898,-1802.336,-1808.774,-1815.212,-1821.65,-1828.088,-1834.526,-1840.964,-1847.402,-1853.84,-1862.576,-1871.312,-1880.048,-1888.784,-1897.52,-1906.256,-1914.992,-1923.728,-1932.464,-1941.2,-1950.512,-1959.824,-1969.136,-1978.448,-1987.76,-1997.072,-2006.384,-2015.696,-2025.008,-2034.32,-2043.984,-2053.648,-2063.312,-2072.976,-2082.64,-2092.304,-2101.968,-2111.632,-2121.296,-2130.96,-2137.254,-2143.548,-2149.842,-2156.136,-2162.43,-2168.724,-2175.018,-2181.312,-2187.606,-2193.9,-2200.83,-2207.76,-2214.69,-2221.62,-2228.55,-2235.48,-2242.41,-2249.34,-2256.27,-2263.2,-2269.642,-2276.084,-2282.526,-2288.968,-2295.41,-2301.852,-2308.294,-2314.736,-2321.178,-2327.62,-2331.714,-2335.808,-2339.902,-2343.996,-2348.09,-2352.184,-2356.278,-2360.372,-2364.466,-2368.56,-2368.544,-2368.528,-2368.512,-2368.496,-2368.48,-2368.464,-2368.448,-2368.432,-2368.416,-2368.4,-2373.374,-2378.348,-2383.322,-2388.296,-2393.27,-2398.244,-2403.218,-2408.192,-2413.166,-2418.14,-2423.72,-2429.3,-2434.88,-2440.46,-2446.04,-2451.62,-2457.2,-2462.78,-2468.36,-2473.94,-2475.858,-2477.776,-2479.694,-2481.612,-2483.53,-2485.448,-2487.366,-2489.284,-2491.202,-2493.12,-2493.708,-2494.296,-2494.884,-2495.472,-2496.06,-2496.648,-2497.236,-2497.824,-2498.412,-2499,-2500.306,-2501.612,-2502.918,-2504.224,-2505.53,-2506.836,-2508.142,-2509.448,-2510.754,-2512.06,-2513.26,-2514.46,-2515.66,-2516.86,-2518.06,-2519.26,-2520.46,-2521.66,-2522.86,-2524.06,-2525.254,-2526.448,-2527.642,-2528.836,-2530.03,-2531.224,-2532.418,-2533.612,-2534.806,-2536,-2537.282,-2538.564,-2539.846,-2541.128,-2542.41,-2543.692,-2544.974,-2546.256,-2547.538,-2548.82,-2550.32,-2551.82,-2553.32,-2554.82,-2556.32,-2557.82,-2559.32,-2560.82,-2562.32,-2563.82,-2564.332,-2564.844,-2565.356,-2565.868,-2566.38,-2566.892,-2567.404,-2567.916,-2568.428,-2568.94,-2570.322,-2571.704,-2573.086,-2574.468,-2575.85,-2577.232,-2578.614,-2579.996,-2581.378,-2582.76,-2583.054,-2583.348,-2583.642,-2583.936,-2584.23,-2584.524,-2584.818,-2585.112,-2585.406,-2585.7,-2586.106,-2586.512,-2586.918
-2088.97,-2089.585,-2090.2,-2090.15,-2090.1,-2090.05,-2090,-2089.95,-2089.9,-2089.85,-2089.8,-2089.75,-2089.7,-2088.39,-2087.08,-2085.77,-2084.46,-2083.15,-2081.84,-2080.53,-2079.22,-2077.91,-2076.6,-2075.285,-2073.97,-2072.655,-2071.34,-2070.025,-2068.71,-2067.395,-2066.08,-2064.765,-2063.45,-2062.42,-2061.39,-2060.36,-2059.33,-2058.3,-2057.27,-2056.24,-2055.21,-2054.18,-2053.15,-2051.66,-2050.17,-2048.68,-2047.19,-2045.7,-2044.21,-2042.72,-2041.23,-2039.74,-2038.25,-2031.105,-2023.96,-2016.815,-2009.67,-2002.525,-1995.38,-1988.235,-1981.09,-1973.945,-1966.8,-1958.68,-1950.56,-1942.44,-1934.32,-1926.2,-1918.08,-1909.96,-1901.84,-1893.72,-1885.6,-1873.82,-1862.04,-1850.26,-1838.48,-1826.7,-1814.92,-1803.14,-1791.36,-1779.58,-1767.8,-1765.63,-1763.46,-1761.29,-1759.12,-1756.95,-1754.78,-1752.61,-1750.44,-1748.27,-1746.1,-1750.355,-1754.61,-1758.865,-1763.12,-1767.375,-1771.63,-1775.885,-1780.14,-1784.395,-1788.65,-1795.295,-1801.94,-1808.585,-1815.23,-1821.875,-1828.52,-1835.165,-1841.81,-1848.455,-1855.1,-1863.89,-1872.68,-1881.47,-1890.26,-1899.05,-1907.84,-1916.63,-1925.42,-1934.21,-1943,-1952.33,-1961.66,-1970.99,-1980.32,-1989.65,-1998.98,-2008.31,-2017.64,-2026.97,-2036.3,-2045.91,-2055.52,-2065.13,-2074.74,-2084.35,-2093.96,-2103.57,-2113.18,-2122.79,-2132.4,-2138.685,-2144.97,-2151.255,-2157.54,-2163.825,-2170.11,-2176.395,-2182.68,-2188.965,-2195.25,-2202.225,-2209.2,-2216.175,-2223.15,-2230.125,-2237.1,-2244.075,-2251.05,-2258.025,-2265,-2271.505,-2278.01,-2284.515,-2291.02,-2297.525,-2304.03,-2310.535,-2317.04,-2323.545,-2330.05,-2334.135,-2338.22,-2342.305,-2346.39,-2350.475,-2354.56,-2358.645,-2362.73,-2366.815,-2370.9,-2371.01,-2371.12,-2371.23,-2371.34,-2371.45,-2371.56,-2371.67,-2371.78,-2371.89,-2372,-2376.785,-2381.57,-2386.355,-2391.14,-2395.925,-2400.71,-2405.495,-2410.28,-2415.065,-2419.85,-2425.25,-2430.65,-2436.05,-2441.45,-2446.85,-2452.25,-2457.65,-2463.05,-2468.45,-2473.85,-2475.795,-2477.74,-2479.685,-2481.63,-2483.575,-2485.52,-2487.465,-2489.41,-2491.355,-2493.3,-2493.87,-2494.44,-2495.01,-2495.58,-2496.15,-2496.72,-2497.29,-2497.86,-2498.43,-2499,-2500.315,-2501.63,-2502.945,-2504.26,-2505.575,-2506.89,-2508.205,-2509.52,-2510.835,-2512.15,-2513.35,-2514.55,-2515.75,-2516.95,-2518.15,-2519.35,-2520.55,-2521.75,-2522.95,-2524.15,-2525.335,-2526.52,-2527.705,-2528.89,-2530.075,-2531.26,-2532.445,-2533.63,-2534.815,-2536,-2537.255,-2538.51,-2539.765,-2541.02,-2542.275,-2543.53,-2544.785,-2546.04,-2547.295,-2548.55,-2550.05,-2551.55,-2553.05,-2554.55,-2556.05,-2557.55,-2559.05,-2560.55,-2562.05,-2563.55,-2564.08,-2564.61,-2565.14,-2565.67,-2566.2,-2566.73,-2567.26,-2567.79,-2568.32,-2568.85,-2570.205,-2571.56,-2572.915,-2574.27,-2575.625,-2576.98,-2578.335,-2579.69,-2581.045,-2582.4,-2582.685,-2582.97,-2583.255,-2583.54,-2583.825,-2584.11,-2584.395,-2584.68,-2584.965,-2585.25,-2585.665,-2586.08,-2586.495
-2087.872,-2088.496,-2089.12,-2089.16,-2089.2,-2089.24,-2089.28,-2089.32,-2089.36,-2089.4,-2089.44,-2089.48,-2089.52,-2088.084,-2086.648,-2085.212,-2083.776,-2082.34,-2080.904,-2079.468,-2078.032,-2076.596,-2075.16,-2073.836,-2072.512,-2071.188,-2069.864,-2068.54,-2067.216,-2065.892,-2064.568,-2063.244,-2061.92,-2060.872,-2059.824,-2058.776,-2057.728,-2056.68,-2055.632,-2054.584,-2053.536,-2052.488,-2051.44,-2049.716,-2047.992,-2046.268,-2044.544,-2042.82,-2041.096,-2039.372,-2037.648,-2035.924,-2034.2,-2027.028,-2019.856,-2012.684,-2005.512,-1998.34,-1991.168,-1983.996,-1976.824,-1969.652,-1962.48,-1954.288,-1946.096,-1937.904,-1929.712,-1921.52,-1913.328,-1905.136,-1896.944,-1888.752,-1880.56,-1869.212,-1857.864,-1846.516,-1835.168,-1823.82,-1812.472,-1801.124,-1789.776,-1778.428,-1767.08,-1764.748,-1762.416,-1760.084,-1757.752,-1755.42,-1753.088,-1750.756,-1748.424,-1746.092,-1743.76,-1748.168,-1752.576,-1756.984,-1761.392,-1765.8,-1770.208,-1774.616,-1779.024,-1783.432,-1787.84,-1794.692,-1801.544,-1808.396,-1815.248,-1822.1,-1828.952,-1835.804,-1842.656,-1849.508,-1856.36,-1865.204,-1874.048,-1882.892,-1891.736,-1900.58,-1909.424,-1918.268,-1927.112,-1935.956,-1944.8,-1954.148,-1963.496,-1972.844,-1982.192,-1991.54,-2000.888,-2010.236,-2019.584,-2028.932,-2038.28,-2047.836,-2057.392,-2066.948,-2076.504,-2086.06,-2095.616,-2105.172,-2114.728,-2124.284,-2133.84,-2140.116,-2146.392,-2152.668,-2158.944,-2165.22,-2171.496,-2177.772,-2184.048,-2190.324,-2196.6,-2203.62,-2210.64,-2217.66,-2224.68,-2231.7,-2238.72,-2245.74,-2252.76,-2259.78,-2266.8,-2273.368,-2279.936,-2286.504,-2293.072,-2299.64,-2306.208,-2312.776,-2319.344,-2325.912,-2332.48,-2336.556,-2340.632,-2344.708,-2348.784,-2352.86,-2356.936,-2361.012,-2365.088,-2369.164,-2373.24,-2373.476,-2373.712,-2373.948,-2374.184,-2374.42,-2374.656,-2374.892,-2375.128,-2375.364,-2375.6,-2380.196,-2384.792,-2389.388,-2393.984,-2398.58,-2403.176,-2407.772,-2412.368,-2416.964,-2421.56,-2426.78,-2432,-2437.22,-2442.44,-2447.66,-2452.88,-2458.1,-2463.32,-2468.54,-2473.76,-2475.732,-2477.704,-2479.676,-2481.648,-2483.62,-2485.592,-2487.564,-2489.536,-2491.508,-2493.48,-2494.032,-2494.584,-2495.136,-2495.688,-2496.24,-2496.792,-2497.344,-2497.896,-2498.448,-2499,-2500.324,-2501.648,-2502.972,-2504.296,-2505.62,-2506.944,-2508.268,-2509.592,-2510.916,-2512.24,-2513.44,-2514.64,-2515.84,-2517.04,-2518.24,-2519.44,-2520.64,-2521.84,-2523.04,-2524.24,-2525.416,-2526.592,-2527.768,-2528.944,-2530.12,-2531.296,-2532.472,-2533.648,-2534.824,-2536,-2537.228,-2538.456,-2539.684,-2540.912,-2542.14,-2543.368,-2544.596,-2545.824,-2547.052,-2548.28,-2549.78,-2551.28,-2552.78,-2554.28,-2555.78,-2557.28,-2558.78,-2560.28,-2561.78,-2563.28,-2563.828,-2564.376,-2564.924,-2565.472,-2566.02,-2566.568,-2567.116,-2567.664,-2568.212,-2568.76,-2570.088,-2571.416,-2572.744,-2574.072,-2575.4,-2576.728,-2578.056,-2579.384,-2580.712,-2582.04,-2582.316,-2582.592,-2582.868,-2583.144,-2583.42,-2583.696,-2583.972,-2584.248,-2584.524,-2584.8,-2585.224,-2585.648,-2586.072
-2086.774,-2087.407,-2088.04,-2088.17,-2088.3,-2088.43,-2088.56,-2088.69,-2088.82,-2088.95,-2089.08,-2089.21,-2089.34,-2087.778,-2086.216,-2084.654,-2083.092,-2081.53,-2079.968,-2078.406,-2076.844,-2075.282,-2073.72,-2072.387,-2071.054,-2069.721,-2068.388,-2067.055,-2065.722,-2064.389,-2063.056,-2061.723,-2060.39,-2059.324,-2058.258,-2057.192,-2056.126,-2055.06,-2053.994,-2052.928,-2051.862,-2050.796,-2049.73,-2047.772,-2045.814,-2043.856,-2041.898,-2039.94,-2037.982,-2036.024,-2034.066,-2032.108,-2030.15,-2022.951,-2015.752,-2008.553,-2001.354,-1994.155,-1986.956,-1979.757,-1972.558,-1965.359,-1958.16,-1949.896,-1941.632,-1933.368,-1925.104,-1916.84,-1908.576,-1900.312,-1892.048,-1883.784,-1875.52,-1864.604,-1853.688,-1842.772,-1831.856,-1820.94,-1810.024,-1799.108,-1788.192,-1777.276,-1766.36,-1763.866,-1761.372,-1758.878,-1756.384,-1753.89,-1751.396,-1748.902,-1746.408,-1743.914,-1741.42,-1745.981,-1750.542,-1755.103,-1759.664,-1764.225,-1768.786,-1773.347,-1777.908,-1782.469,-1787.03,-1794.089,-1801.148,-1808.207,-1815.266,-1822.325,-1829.384,-1836.443,-1843.502,-1850.561,-1857.62,-1866.518,-1875.416,-1884.314,-1893.212,-1902.11,-1911.008,-1919.906,-1928.804,-1937.702,-1946.6,-1955.966,-1965.332,-1974.698,-1984.064,-1993.43,-2002.796,-2012.162,-2021.528,-2030.894,-2040.26,-2049.762,-2059.264,-2068.766,-2078.268,-2087.77,-2097.272,-2106.774,-2116.276,-2125.778,-2135.28,-2141.547,-2147.814,-2154.081,-2160.348,-2166.615,-2172.882,-2179.149,-2185.416,-2191.683,-2197.95,-2205.015,-2212.08,-2219.145,-2226.21,-2233.275,-2240.34,-2247.405,-2254.47,-2261.535,-2268.6,-2275.231,-2281.862,-2288.493,-2295.124,-2301.755,-2308.386,-2315.017,-2321.648,-2328.279,-2334.91,-2338.977,-2343.044,-2347.111,-2351.178,-2355.245,-2359.312,-2363.379,-2367.446,-2371.513,-2375.58,-2375.942,-2376.304,-2376.666,-2377.028,-2377.39,-2377.752,-2378.114,-2378.476,-2378.838,-2379.2,-2383.607,-2388.014,-2392.421,-2396.828,-2401.235,-2405.642,-2410.049,-2414.456,-2418.863,-2423.27,-2428.31,-2433.35,-2438.39,-2443.43,-2448.47,-2453.51,-2458.55,-2463.59,-2468.63,-2473.67,-2475.669,-2477.668,-2479.667,-2481.666,-2483.665,-2485.664,-2487.663,-2489.662,-2491.661,-2493.66,-2494.194,-2494.728,-2495.262,-2495.796,-2496.33,-2496.864,-2497.398,-2497.932,-2498.466,-2499,-2500.333,-2501.666,-2502.999,-2504.332,-2505.665,-2506.998,-2508.331,-2509.664,-2510.997,-2512.33,-2513.53,-2514.73,-2515.93,-2517.13,-2518.33,-2519.53,-2520.73,-2521.93,-2523.13,-2524.33,-2525.497,-2526.664,-2527.831,-2528.998,-2530.165,-2531.332,-2532.499,-2533.666,-2534.833,-2536,-2537.201,-2538.402,-2539.603,-2540.804,-2542.005,-2543.206,-2544.407,-2545.608,-2546.809,-2548.01,-2549.51,-2551.01,-2552.51,-2554.01,-2555.51,-2557.01,-2558.51,-2560.01,-2561.51,-2563.01,-2563.576,-2564.142,-2564.708,-2565.274,-2565.84,-2566.406,-2566.972,-2567.538,-2568.104,-2568.67,-2569.971,-2571.272,-2572.573,-2573.874,-2575.175,-2576.476,-2577.777,-2579.078,-2580.379,-2581.68,-2581.947,-2582.214,-2582.481,-2582.748,-2583.015,-2583.282,-2583.549,-2583.816,-2584.083,-2584.35,-2584.783,-2585.216,-2585.649
-2085.676,-2086.318,-2086.96,-2087.18,-2087.4,-2087.62,-2087.84,-2088.06,-2088.28,-2088.5,-2088.72,-2088.94,-2089.16,-2087.472,-2085.784,-2084.096,-2082.408,-2080.72,-2079.032,-2077.344,-2075.656,-2073.968,-2072.28,-2070.938,-2069.596,-2068.254,-2066.912,-2065.57,-2064.228,-2062.886,-2061.544,-2060.202,-2058.86,-2057.776,-2056.692,-2055.608,-2054.524,-2053.44,-2052.356,-2051.272,-2050.188,-2049.104,-2048.02,-2045.828,-2043.636,-2041.444,-2039.252,-2037.06,-2034.868,-2032.676,-2030.484,-2028.292,-2026.1,-2018.874,-2011.648,-2004.422,-1997.196,-1989.97,-1982.744,-1975.518,-1968.292,-1961.066,-1953.84,-1945.504,-1937.168,-1928.832,-1920.496,-1912.16,-1903.824,-1895.488,-1887.152,-1878.816,-1870.48,-1859.996,-1849.512,-1839.028,-1828.544,-1818.06,-1807.576,-1797.092,-1786.608,-1776.124,-1765.64,-1762.984,-1760.328,-1757.672,-1755.016,-1752.36,-1749.704,-1747.048,-1744.392,-1741.736,-1739.08,-1743.794,-1748.508,-1753.222,-1757.936,-1762.65,-1767.364,-1772.078,-1776.792,-1781.506,-1786.22,-1793.486,-1800.752,-1808.018,-1815.284,-1822.55,-1829.816,-1837.082,-1844.348,-1851.614,-1858.88,-1867.832,-1876.784,-1885.736,-1894.688,-1903.64,-1912.592,-1921.544,-1930.496,-1939.448,-1948.4,-1957.784,-1967.168,-1976.552,-1985.936,-1995.32,-2004.704,-2014.088,-2023.472,-2032.856,-2042.24,-2051.688,-2061.136,-2070.584,-2080.032,-2089.48,-2098.928,-2108.376,-2117.824,-2127.272,-2136.72,-2142.978,-2149.236,-2155.494,-2161.752,-2168.01,-2174.268,-2180.526,-2186.784,-2193.042,-2199.3,-2206.41,-2213.52,-2220.63,-2227.74,-2234.85,-2241.96,-2249.07,-2256.18,-2263.29,-2270.4,-2277.094,-2283.788,-2290.482,-2297.176,-2303.87,-2310.564,-2317.258,-2323.952,-2330.646,-2337.34,-2341.398,-2345.456,-2349.514,-2353.572,-2357.63,-2361.688,-2365.746,-2369.804,-2373.862,-2377.92,-2378.408,-2378.896,-2379.384,-2379.872,-2380.36,-2380.848,-2381.336,-2381.824,-2382.312,-2382.8,-2387.018,-2391.236,-2395.454,-2399.672,-2403.89,-2408.108,-2412.326,-2416.544,-2420.762,-2424.98,-2429.84,-2434.7,-2439.56,-2444.42,-2449.28,-2454.14,-2459,-2463.86,-2468.72,-2473.58,-2475.606,-2477.632,-2479.658,-2481.684,-2483.71,-2485.736,-2487.762,-2489.788,-2491.814,-2493.84,-2494.356,-2494.872,-2495.388,-2495.904,-2496.42,-2496.936,-2497.452,-2497.968,-2498.484,-2499,-2500.342,-2501.684,-2503.026,-2504.368,-2505.71,-2507.052,-2508.394,-2509.736,-2511.078,-2512.42,-2513.62,-2514.82,-2516.02,-2517.22,-2518.42,-2519.62,-2520.82,-2522.02,-2523.22,-2524.42,-2525.578,-2526.736,-2527.894,-2529.052,-2530.21,-2531.368,-2532.526,-2533.684,-2534.842,-2536,-2537.174,-2538.348,-2539.522,-2540.696,-2541.87,-2543.044,-2544.218,-2545.392,-2546.566,-2547.74,-2549.24,-2550.74,-2552.24,-2553.74,-2555.24,-2556.74,-2558.24,-2559.74,-2561.24,-2562.74,-2563.324,-2563.908,-2564.492,-2565.076,-2565.66,-2566.244,-2566.828,-2567.412,-2567.996,-2568.58,-2569.854,-2571.128,-2572.402,-2573.676,-2574.95,-2576.224,-2577.498,-2578.772,-2580.046,-2581.32,-2581.578,-2581.836,-2582.094,-2582.352,-2582.61,-2582.868,-2583.126,-2583.384,-2583.642,-2583.9,-2584.342,-2584.784,-2585.226
-2084.578,-2085.229,-2085.88,-2086.19,-2086.5,-2086.81,-2087.12,-2087.43,-2087.74,-2088.05,-2088.36,-2088.67,-2088.98,-2087.166,-2085.352,-2083.538,-2081.724,-2079.91,-2078.096,-2076.282,-2074.468,-2072.654,-2070.84,-2069.489,-2068.138,-2066.787,-2065.436,-2064.085,-2062.734,-2061.383,-2060.032,-2058.681,-2057.33,-2056.228,-2055.126,-2054.024,-2052.922,-2051.82,-2050.718,-2049.616,-2048.514,-2047.412,-2046.31,-2043.884,-2041.458,-2039.032,-2036.606,-2034.18,-2031.754,-2029.328,-2026.902,-2024.476,-2022.05,-2014.797,-2007.544,-2000.291,-1993.038,-1985.785,-1978.532,-1971.279,-1964.026,-1956.773,-1949.52,-1941.112,-1932.704,-1924.296,-1915.888,-1907.48,-1899.072,-1890.664,-1882.256,-1873.848,-1865.44,-1855.388,-1845.336,-1835.284,-1825.232,-1815.18,-1805.128,-1795.076,-1785.024,-1774.972,-1764.92,-1762.102,-1759.284,-1756.466,-1753.648,-1750.83,-1748.012,-1745.194,-1742.376,-1739.558,-1736.74,-1741.607,-1746.474,-1751.341,-1756.208,-1761.075,-1765.942,-1770.809,-1775.676,-1780.543,-1785.41,-1792.883,-1800.356,-1807.829,-1815.302,-1822.775,-1830.248,-1837.721,-1845.194,-1852.667,-1860.14,-1869.146,-1878.152,-1887.158,-1896.164,-1905.17,-1914.176,-1923.182,-1932.188,-1941.194,-1950.2,-1959.602,-1969.004,-1978.406,-1987.808,-1997.21,-2006.612,-2016.014,-2025.416,-2034.818,-2044.22,-2053.614,-2063.008,-2072.402,-2081.796,-2091.19,-2100.584,-2109.978,-2119.372,-2128.766,-2138.16,-2144.409,-2150.658,-2156.907,-2163.156,-2169.405,-2175.654,-2181.903,-2188.152,-2194.401,-2200.65,-2207.805,-2214.96,-2222.115,-2229.27,-2236.425,-2243.58,-2250.735,-2257.89,-2265.045,-2272.2,-2278.957,-2285.714,-2292.471,-2299.228,-2305.985,-2312.742,-2319.499,-2326.256,-2333.013,-2339.77,-2343.819,-2347.868,-2351.917,-2355.966,-2360.015,-2364.064,-2368.113,-2372.162,-2376.211,-2380.26,-2380.874,-2381.488,-2382.102,-2382.716,-2383.33,-2383.944,-2384.558,-2385.172,-2385.786,-2386.4,-2390.429,-2394.458,-2398.487,-2402.516,-2406.545,-2410.574,-2414.603,-2418.632,-2422.661,-2426.69,-2431.37,-2436.05,-2440.73,-2445.41,-2450.09,-2454.77,-2459.45,-2464.13,-2468.81,-2473.49,-2475.543,-2477.596,-2479.649,-2481.702,-2483.755,-2485.808,-2487.861,-2489.914,-2491.967,-2494.02,-2494.518,-2495.016,-2495.514,-2496.012,-2496.51,-2497.008,-2497.506,-2498.004,-2498.502,-2499,-2500.351,-2501.702,-2503.053,-2504.404,-2505.755,-2507.106,-2508.457,-2509.808,-2511.159,-2512.51,-2513.71,-2514.91,-2516.11,-2517.31,-2518.51,-2519.71,-2520.91,-2522.11,-2523.31,-2524.51,-2525.659,-2526.808,-2527.957,-2529.106,-2530.255,-2531.404,-2532.553,-2533.702,-2534.851,-2536,-2537.147,-2538.294,-2539.441,-2540.588,-2541.735,-2542.882,-2544.029,-2545.176,-2546.323,-2547.47,-2548.97,-2550.47,-2551.97,-2553.47,-2554.97,-2556.47,-2557.97,-2559.47,-2560.97,-2562.47,-2563.072,-2563.674,-2564.276,-2564.878,-2565.48,-2566.082,-2566.684,-2567.286,-2567.888,-2568.49,-2569.737,-2570.984,-2572.231,-2573.478,-2574.725,-2575.972,-2577.219,-2578.466,-2579.713,-2580.96,-2581.209,-2581.458,-2581.707,-2581.956,-2582.205,-2582.454,-2582.703,-2582.952,-2583.201,-2583.45,-2583.901,-2584.352,-2584.803
-2083.48,-2084.14,-2084.8,-2085.2,-2085.6,-2086,-2086.4,-2086.8,-2087.2,-2087.6,-2088,-2088.4,-2088.8,-2086.86,-2084.92,-2082.98,-2081.04,-2079.1,-2077.16,-2075.22,-2073.28,-2071.34,-2069.4,-2068.04,-2066.68,-2065.32,-2063.96,-2062.6,-2061.24,-2059.88,-2058.52,-2057.16,-2055.8,-2054.68,-2053.56,-2052.44,-2051.32,-2050.2,-2049.08,-2047.96,-2046.84,-2045.72,-2044.6,-2041.94,-2039.28,-2036.62,-2033.96,-2031.3,-2028.64,-2025.98,-2023.32,-2020.66,-2018,-2010.72,-2003.44,-1996.16,-1988.88,-1981.6,-1974.32,-1967.04,-1959.76,-1952.48,-1945.2,-1936.72,-1928.24,-1919.76,-1911.28,-1902.8,-1894.32,-1885.84,-1877.36,-1868.88,-1860.4,-1850.78,-1841.16,-1831.54,-1821.92,-1812.3,-1802.68,-1793.06,-1783.44,-1773.82,-1764.2,-1761.22,-1758.24,-1755.26,-1752.28,-1749.3,-1746.32,-1743.34,-1740.36,-1737.38,-1734.4,-1739.42,-1744.44,-1749.46,-1754.48,-1759.5,-1764.52,-1769.54,-1774.56,-1779.58,-1784.6,-1792.28,-1799.96,-1807.64,-1815.32,-1823,-1830.68,-1838.36,-1846.04,-1853.72,-1861.4,-1870.46,-1879.52,-1888.58,-1897.64,-1906.7,-1915.76,-1924.82,-1933.88,-1942.94,-1952,-1961.42,-1970.84,-1980.26,-1989.68,-1999.1,-2008.52,-2017.94,-2027.36,-2036.78,-2046.2,-2055.54,-2064.88,-2074.22,-2083.56,-2092.9,-2102.24,-2111.58,-2120.92,-2130.26,-2139.6,-2145.84,-2152.08,-2158.32,-2164.56,-2170.8,-2177.04,-2183.28,-2189.52,-2195.76,-2202,-2209.2,-2216.4,-2223.6,-2230.8,-2238,-2245.2,-2252.4,-2259.6,-2266.8,-2274,-2280.82,-2287.64,-2294.46,-2301.28,-2308.1,-2314.92,-2321.74,-2328.56,-2335.38,-2342.2,-2346.24,-2350.28,-2354.32,-2358.36,-2362.4,-2366.44,-2370.48,-2374.52,-2378.56,-2382.6,-2383.34,-2384.08,-2384.82,-2385.56,-2386.3,-2387.04,-2387.78,-2388.52,-2389.26,-2390,-2393.84,-2397.68,-2401.52,-2405.36,-2409.2,-2413.04,-2416.88,-2420.72,-2424.56,-2428.4,-2432.9,-2437.4,-2441.9,-2446.4,-2450.9,-2455.4,-2459.9,-2464.4,-2468.9,-2473.4,-2475.48,-2477.56,-2479.64,-2481.72,-2483.8,-2485.88,-2487.96,-2490.04,-2492.12,-2494.2,-2494.68,-2495.16,-2495.64,-2496.12,-2496.6,-2497.08,-2497.56,-2498.04,-2498.52,-2499,-2500.36,-2501.72,-2503.08,-2504.44,-2505.8,-2507.16,-2508.52,-2509.88,-2511.24,-2512.6,-2513.8,-2515,-2516.2,-2517.4,-2518.6,-2519.8,-2521,-2522.2,-2523.4,-2524.6,-2525.74,-2526.88,-2528.02,-2529.16,-2530.3,-2531.44,-2532.58,-2533.72,-2534.86,-2536,-2537.12,-2538.24,-2539.36,-2540.48,-2541.6,-2542.72,-2543.84,-2544.96,-2546.08,-2547.2,-2548.7,-2550.2,-2551.7,-2553.2,-2554.7,-2556.2,-2557.7,-2559.2,-2560.7,-2562.2,-2562.82,-2563.44,-2564.06,-2564.68,-2565.3,-2565.92,-2566.54,-2567.16,-2567.78,-2568.4,-2569.62,-2570.84,-2572.06,-2573.28,-2574.5,-2575.72,-2576.94,-2578.16,-2579.38,-2580.6,-2580.84,-2581.08,-2581.32,-2581.56,-2581.8,-2582.04,-2582.28,-2582.52,-2582.76,-2583,-2583.46,-2583.92,-2584.38
-2082.382,-2083.051,-2083.72,-2084.21,-2084.7,-2085.19,-2085.68,-2086.17,-2086.66,-2087.15,-2087.64,-2088.13,-2088.62,-2086.554,-2084.488,-2082.422,-2080.356,-2078.29,-2076.224,-2074.158,-2072.092,-2070.026,-2067.96,-2066.591,-2065.222,-2063.853,-2062.484,-2061.115,-2059.746,-2058.377,-2057.008,-2055.639,-2054.27,-2053.132,-2051.994,-2050.856,-2049.718,-2048.58,-2047.442,-2046.304,-2045.166,-2044.028,-2042.89,-2039.996,-2037.102,-2034.208,-2031.314,-2028.42,-2025.526,-2022.632,-2019.738,-2016.844,-2013.95,-2006.643,-1999.336,-1992.029,-1984.722,-1977.415,-1970.108,-1962.801,-1955.494,-1948.187,-1940.88,-1932.328,-1923.776,-1915.224,-1906.672,-1898.12,-1889.568,-1881.016,-1872.464,-1863.912,-1855.36,-1846.172,-1836.984,-1827.796,-1818.608,-1809.42,-1800.232,-1791.044,-1781.856,-1772.668,-1763.48,-1760.338,-1757.196,-1754.054,-1750.912,-1747.77,-1744.628,-1741.486,-1738.344,-1735.202,-1732.06,-1737.233,-1742.406,-1747.579,-1752.752,-1757.925,-1763.098,-1768.271,-1773.444,-1778.617,-1783.79,-1791.677,-1799.564,-1807.451,-1815.338,-1823.225,-1831.112,-1838.999,-1846.886,-1854.773,-1862.66,-1871.774,-1880.888,-1890.002,-1899.116,-1908.23,-1917.344,-1926.458,-1935.572,-1944.686,-1953.8,-1963.238,-1972.676,-1982.114,-1991.552,-2000.99,-2010.428,-2019.866,-2029.304,-2038.742,-2048.18,-2057.466,-2066.752,-2076.038,-2085.324,-2094.61,-2103.896,-2113.182,-2122.468,-2131.754,-2141.04,-2147.271,-2153.502,-2159.733,-2165.964,-2172.195,-2178.426,-2184.657,-2190.888,-2197.119,-2203.35,-2210.595,-2217.84,-2225.085,-2232.33,-2239.575,-2246.82,-2254.065,-2261.31,-2268.555,-2275.8,-2282.683,-2289.566,-2296.449,-2303.332,-2310.215,-2317.098,-2323.981,-2330.864,-2337.747,-2344.63,-2348.661,-2352.692,-2356.723,-2360.754,-2364.785,-2368.816,-2372.847,-2376.878,-2380.909,-2384.94,-2385.806,-2386.672,-2387.538,-2388.404,-2389.27,-2390.136,-2391.002,-2391.868,-2392.734,-2393.6,-2397.251,-2400.902,-2404.553,-2408.204,-2411.855,-2415.506,-2419.157,-2422.808,-2426.459,-2430.11,-2434.43,-2438.75,-2443.07,-2447.39,-2451.71,-2456.03,-2460.35,-2464.67,-2468.99,-2473.31,-2475.417,-2477.524,-2479.631,-2481.738,-2483.845,-2485.952,-2488.059,-2490.166,-2492.273,-2494.38,-2494.842,-2495.304,-2495.766,-2496.228,-2496.69,-2497.152,-2497.614,-2498.076,-2498.538,-2499,-2500.369,-2501.738,-2503.107,-2504.476,-2505.845,-2507.214,-2508.583,-2509.952,-2511.321,-2512.69,-2513.89,-2515.09,-2516.29,-2517.49,-2518.69,-2519.89,-2521.09,-2522.29,-2523.49,-2524.69,-2525.821,-2526.952,-2528.083,-2529.214,-2530.345,-2531.476,-2532.607,-2533.738,-2534.869,-2536,-2537.093,-2538.186,-2539.279,-2540.372,-2541.465,-2542.558,-2543.651,-2544.744,-2545.837,-2546.93,-2548.43,-2549.93,-2551.43,-2552.93,-2554.43,-2555.93,-2557.43,-2558.93,-2560.43,-2561.93,-2562.568,-2563.206,-2563.844,-2564.482,-2565.12,-2565.758,-2566.396,-2567.034,-2567.672,-2568.31,-2569.503,-2570.696,-2571.889,-2573.082,-2574.275,-2575.468,-2576.661,-2577.854,-2579.047,-2580.24,-2580.471,-2580.702,-2580.933,-2581.164,-2581.395,-2581.626,-2581.857,-2582.088,-2582.319,-2582.55,-2583.019,-2583.488,-2583.957
-2081.284,-2081.962,-2082.64,-2083.22,-2083.8,-2084.38,-2084.96,-2085.54,-2086.12,-2086.7,-2087.28,-2087.86,-2088.44,-2086.248,-2084.056,-2081.864,-2079.672,-2077.48,-2075.288,-2073.096,-2070.904,-2068.712,-2066.52,-2065.142,-2063.764,-2062.386,-2061.008,-2059.63,-2058.252,-2056.874,-2055.496,-2054.118,-2052.74,-2051.584,-2050.428,-2049.272,-2048.116,-2046.96,-2045.804,-2044.648,-2043.492,-2042.336,-2041.18,-2038.052,-2034.924,-2031.796,-2028.668,-2025.54,-2022.412,-2019.284,-2016.156,-2013.028,-2009.9,-2002.566,-1995.232,-1987.898,-1980.564,-1973.23,-1965.896,-1958.562,-1951.228,-1943.894,-1936.56,-1927.936,-1919.312,-1910.688,-1902.064,-1893.44,-1884.816,-1876.192,-1867.568,-1858.944,-1850.32,-1841.564,-1832.808,-1824.052,-1815.296,-1806.54,-1797.784,-1789.028,-1780.272,-1771.516,-1762.76,-1759.456,-1756.152,-1752.848,-1749.544,-1746.24,-1742.936,-1739.632,-1736.328,-1733.024,-1729.72,-1735.046,-1740.372,-1745.698,-1751.024,-1756.35,-1761.676,-1767.002,-1772.328,-1777.654,-1782.98,-1791.074,-1799.168,-1807.262,-1815.356,-1823.45,-1831.544,-1839.638,-1847.732,-1855.826,-1863.92,-1873.088,-1882.256,-1891.424,-1900.592,-1909.76,-1918.928,-1928.096,-1937.264,-1946.432,-1955.6,-1965.056,-1974.512,-1983.968,-1993.424,-2002.88,-2012.336,-2021.792,-2031.248,-2040.704,-2050.16,-2059.392,-2068.624,-2077.856,-2087.088,-2096.32,-2105.552,-2114.784,-2124.016,-2133.248,-2142.48,-2148.702,-2154.924,-2161.146,-2167.368,-2173.59,-2179.812,-2186.034,-2192.256,-2198.478,-2204.7,-2211.99,-2219.28,-2226.57,-2233.86,-2241.15,-2248.44,-2255.73,-2263.02,-2270.31,-2277.6,-2284.546,-2291.492,-2298.438,-2305.384,-2312.33,-2319.276,-2326.222,-2333.168,-2340.114,-2347.06,-2351.082,-2355.104,-2359.126,-2363.148,-2367.17,-2371.192,-2375.214,-2379.236,-2383.258,-2387.28,-2388.272,-2389.264,-2390.256,-2391.248,-2392.24,-2393.232,-2394.224,-2395.216,-2396.208,-2397.2,-2400.662,-2404.124,-2407.586,-2411.048,-2414.51,-2417.972,-2421.434,-2424.896,-2428.358,-2431.82,-2435.96,-2440.1,-2444.24,-2448.38,-2452.52,-2456.66,-2460.8,-2464.94,-2469.08,-2473.22,-2475.354,-2477.488,-2479.622,-2481.756,-2483.89,-2486.024,-2488.158,-2490.292,-2492.426,-2494.56,-2495.004,-2495.448,-2495.892,-2496.336,-2496.78,-2497.224,-2497.668,-2498.112,-2498.556,-2499,-2500.378,-2501.756,-2503.134,-2504.512,-2505.89,-2507.268,-2508.646,-2510.024,-2511.402,-2512.78,-2513.98,-2515.18,-2516.38,-2517.58,-2518.78,-2519.98,-2521.18,-2522.38,-2523.58,-2524.78,-2525.902,-2527.024,-2528.146,-2529.268,-2530.39,-2531.512,-2532.634,-2533.756,-2534.878,-2536,-2537.066,-2538.132,-2539.198,-2540.264,-2541.33,-2542.396,-2543.462,-2544.528,-2545.594,-2546.66,-2548.16,-2549.66,-2551.16,-2552.66,-2554.16,-2555.66,-2557.16,-2558.66,-2560.16,-2561.66,-2562.316,-2562.972,-2563.628,-2564.284,-2564.94,-2565.596,-2566.252,-2566.908,-2567.564,-2568.22,-2569.386,-2570.552,-2571.718,-2572.884,-2574.05,-2575.216,-2576.382,-2577.548,-2578.714,-2579.88,-2580.102,-2580.324,-2580.546,-2580.768,-2580.99,-2581.212,-2581.434,-2581.656,-2581.878,-2582.1,-2582.578,-2583.056,-2583.534
-2080.186,-2080.873,-2081.56,-2082.23,-2082.9,-2083.57,-2084.24,-2084.91,-2085.58,-2086.25,-2086.92,-2087.59,-2088.26,-2085.942,-2083.624,-2081.306,-2078.988,-2076.67,-2074.352,-2072.034,-2069.716,-2067.398,-2065.08,-2063.693,-2062.306,-2060.919,-2059.532,-2058.145,-2056.758,-2055.371,-2053.984,-2052.597,-2051.21,-2050.036,-2048.862,-2047.688,-2046.514,-2045.34,-2044.166,-2042.992,-2041.818,-2040.644,-2039.47,-2036.108,-2032.746,-2029.384,-2026.022,-2022.66,-2019.298,-2015.936,-2012.574,-2009.212,-2005.85,-1998.489,-1991.128,-1983.767,-1976.406,-1969.045,-1961.684,-1954.323,-1946.962,-1939.601,-1932.24,-1923.544,-1914.848,-1906.152,-1897.456,-1888.76,-1880.064,-1871.368,-1862.672,-1853.976,-1845.28,-1836.956,-1828.632,-1820.308,-1811.984,-1803.66,-1795.336,-1787.012,-1778.688,-1770.364,-1762.04,-1758.574,-1755.108,-1751.642,-1748.176,-1744.71,-1741.244,-1737.778,-1734.312,-1730.846,-1727.38,-1732.859,-1738.338,-1743.817,-1749.296,-1754.775,-1760.254,-1765.733,-1771.212,-1776.691,-1782.17,-1790.471,-1798.772,-1807.073,-1815.374,-1823.675,-1831.976,-1840.277,-1848.578,-1856.879,-1865.18,-1874.402,-1883.624,-1892.846,-1902.068,-1911.29,-1920.512,-1929.734,-1938.956,-1948.178,-1957.4,-1966.874,-1976.348,-1985.822,-1995.296,-2004.77,-2014.244,-2023.718,-2033.192,-2042.666,-2052.14,-2061.318,-2070.496,-2079.674,-2088.852,-2098.03,-2107.208,-2116.386,-2125.564,-2134.742,-2143.92,-2150.133,-2156.346,-2162.559,-2168.772,-2174.985,-2181.198,-2187.411,-2193.624,-2199.837,-2206.05,-2213.385,-2220.72,-2228.055,-2235.39,-2242.725,-2250.06,-2257.395,-2264.73,-2272.065,-2279.4,-2286.409,-2293.418,-2300.427,-2307.436,-2314.445,-2321.454,-2328.463,-2335.472,-2342.481,-2349.49,-2353.503,-2357.516,-2361.529,-2365.542,-2369.555,-2373.568,-2377.581,-2381.594,-2385.607,-2389.62,-2390.738,-2391.856,-2392.974,-2394.092,-2395.21,-2396.328,-2397.446,-2398.564,-2399.682,-2400.8,-2404.073,-2407.346,-2410.619,-2413.892,-2417.165,-2420.438,-2423.711,-2426.984,-2430.257,-2433.53,-2437.49,-2441.45,-2445.41,-2449.37,-2453.33,-2457.29,-2461.25,-2465.21,-2469.17,-2473.13,-2475.291,-2477.452,-2479.613,-2481.774,-2483.935,-2486.096,-2488.257,-2490.418,-2492.579,-2494.74,-2495.166,-2495.592,-2496.018,-2496.444,-2496.87,-2497.296,-2497.722,-2498.148,-2498.574,-2499,-2500.387,-2501.774,-2503.161,-2504.548,-2505.935,-2507.322,-2508.709,-2510.096,-2511.483,-2512.87,-2514.07,-2515.27,-2516.47,-2517.67,-2518.87,-2520.07,-2521.27,-2522.47,-2523.67,-2524.87,-2525.983,-2527.096,-2528.209,-2529.322,-2530.435,-2531.548,-2532.661,-2533.774,-2534.887,-2536,-2537.039,-2538.078,-2539.117,-2540.156,-2541.195,-2542.234,-2543.273,-2544.312,-2545.351,-2546.39,-2547.89,-2549.39,-2550.89,-2552.39,-2553.89,-2555.39,-2556.89,-2558.39,-2559.89,-2561.39,-2562.064,-2562.738,-2563.412,-2564.086,-2564.76,-2565.434,-2566.108,-2566.782,-2567.456,-2568.13,-2569.269,-2570.408,-2571.547,-2572.686,-2573.825,-2574.964,-2576.103,-2577.242,-2578.381,-2579.52,-2579.733,-2579.946,-2580.159,-2580.372,-2580.585,-2580.798,-2581.011,-2581.224,-2581.437,-2581.65,-2582.137,-2582.624,-2583.111
-2079.088,-2079.784,-2080.48,-2081.24,-2082,-2082.76,-2083.52,-2084.28,-2085.04,-2085.8,-2086.56,-2087.32,-2088.08,-2085.636,-2083.192,-2080.748,-2078.304,-2075.86,-2073.416,-2070.972,-2068.528,-2066.084,-2063.64,-2062.244,-2060.848,-2059.452,-2058.056,-2056.66,-2055.264,-2053.868,-2052.472,-2051.076,-2049.68,-2048.488,-2047.296,-2046.104,-2044.912,-2043.72,-2042.528,-2041.336,-2040.144,-2038.952,-2037.76,-2034.164,-2030.568,-2026.972,-2023.376,-2019.78,-2016.184,-2012.588,-2008.992,-2005.396,-2001.8,-1994.412,-1987.024,-1979.636,-1972.248,-1964.86,-1957.472,-1950.084,-1942.696,-1935.308,-1927.92,-1919.152,-1910.384,-1901.616,-1892.848,-1884.08,-1875.312,-1866.544,-1857.776,-1849.008,-1840.24,-1832.348,-1824.456,-1816.564,-1808.672,-1800.78,-1792.888,-1784.996,-1777.104,-1769.212,-1761.32,-1757.692,-1754.064,-1750.436,-1746.808,-1743.18,-1739.552,-1735.924,-1732.296,-1728.668,-1725.04,-1730.672,-1736.304,-1741.936,-1747.568,-1753.2,-1758.832,-1764.464,-1770.096,-1775.728,-1781.36,-1789.868,-1798.376,-1806.884,-1815.392,-1823.9,-1832.408,-1840.916,-1849.424,-1857.932,-1866.44,-1875.716,-1884.992,-1894.268,-1903.544,-1912.82,-1922.096,-1931.372,-1940.648,-1949.924,-1959.2,-1968.692,-1978.184,-1987.676,-1997.168,-2006.66,-2016.152,-2025.644,-2035.136,-2044.628,-2054.12,-2063.244,-2072.368,-2081.492,-2090.616,-2099.74,-2108.864,-2117.988,-2127.112,-2136.236,-2145.36,-2151.564,-2157.768,-2163.972,-2170.176,-2176.38,-2182.584,-2188.788,-2194.992,-2201.196,-2207.4,-2214.78,-2222.16,-2229.54,-2236.92,-2244.3,-2251.68,-2259.06,-2266.44,-2273.82,-2281.2,-2288.272,-2295.344,-2302.416,-2309.488,-2316.56,-2323.632,-2330.704,-2337.776,-2344.848,-2351.92,-2355.924,-2359.928,-2363.932,-2367.936,-2371.94,-2375.944,-2379.948,-2383.952,-2387.956,-2391.96,-2393.204,-2394.448,-2395.692,-2396.936,-2398.18,-2399.424,-2400.668,-2401.912,-2403.156,-2404.4,-2407.484,-2410.568,-2413.652,-2416.736,-2419.82,-2422.904,-2425.988,-2429.072,-2432.156,-2435.24,-2439.02,-2442.8,-2446.58,-2450.36,-2454.14,-2457.92,-2461.7,-2465.48,-2469.26,-2473.04,-2475.228,-2477.416,-2479.604,-2481.792,-2483.98,-2486.168,-2488.356,-2490.544,-2492.732,-2494.92,-2495.328,-2495.736,-2496.144,-2496.552,-2496.96,-2497.368,-2497.776,-2498.184,-2498.592,-2499,-2500.396,-2501.792,-2503.188,-2504.584,-2505.98,-2507.376,-2508.772,-2510.168,-2511.564,-2512.96,-2514.16,-2515.36,-2516.56,-2517.76,-2518.96,-2520.16,-2521.36,-2522.56,-2523.76,-2524.96,-2526.064,-2527.168,-2528.272,-2529.376,-2530.48,-2531.584,-2532.688,-2533.792,-2534.896,-2536,-2537.012,-2538.024,-2539.036,-2540.048,-2541.06,-2542.072,-2543.084,-2544.096,-2545.108,-2546.12,-2547.62,-2549.12,-2550.62,-2552.12,-2553.62,-2555.12,-2556.62,-2558.12,-2559.62,-2561.12,-2561.812,-2562.504,-2563.196,-2563.888,-2564.58,-2565.272,-2565.964,-2566.656,-2567.348,-2568.04,-2569.152,-2570.264,-2571.376,-2572.488,-2573.6,-2574.712,-2575.824,-2576.936,-2578.048,-2579.16,-2579.364,-2579.568,-2579.772,-2579.976,-2580.18,-2580.384,-2580.588,-2580.792,-2580.996,-2581.2,-2581.696,-2582.192,-2582.688
-2077.28,-2077.94,-2078.6,-2079.335,-2080.07,-2080.805,-2081.54,-2082.275,-2083.01,-2083.745,-2084.48,-2085.215,-2085.95,-2083.445,-2080.94,-2078.435,-2075.93,-2073.425,-2070.92,-2068.415,-2065.91,-2063.405,-2060.9,-2059.55,-2058.2,-2056.85,-2055.5,-2054.15,-2052.8,-2051.45,-2050.1,-2048.75,-2047.4,-2046.21,-2045.02,-2043.83,-2042.64,-2041.45,-2040.26,-2039.07,-2037.88,-2036.69,-2035.5,-2031.74,-2027.98,-2024.22,-2020.46,-2016.7,-2012.94,-2009.18,-2005.42,-2001.66,-1997.9,-1990.48,-1983.06,-1975.64,-1968.22,-1960.8,-1953.38,-1945.96,-1938.54,-1931.12,-1923.7,-1914.875,-1906.05,-1897.225,-1888.4,-1879.575,-1870.75,-1861.925,-1853.1,-1844.275,-1835.45,-1827.86,-1820.27,-1812.68,-1805.09,-1797.5,-1789.91,-1782.32,-1774.73,-1767.14,-1759.55,-1755.875,-1752.2,-1748.525,-1744.85,-1741.175,-1737.5,-1733.825,-1730.15,-1726.475,-1722.8,-1728.6,-1734.4,-1740.2,-1746,-1751.8,-1757.6,-1763.4,-1769.2,-1775,-1780.8,-1789.495,-1798.19,-1806.885,-1815.58,-1824.275,-1832.97,-1841.665,-1850.36,-1859.055,-1867.75,-1877.045,-1886.34,-1895.635,-1904.93,-1914.225,-1923.52,-1932.815,-1942.11,-1951.405,-1960.7,-1970.19,-1979.68,-1989.17,-1998.66,-2008.15,-2017.64,-2027.13,-2036.62,-2046.11,-2055.6,-2064.66,-2073.72,-2082.78,-2091.84,-2100.9,-2109.96,-2119.02,-2128.08,-2137.14,-2146.2,-2152.33,-2158.46,-2164.59,-2170.72,-2176.85,-2182.98,-2189.11,-2195.24,-2201.37,-2207.5,-2215,-2222.5,-2230,-2237.5,-2245,-2252.5,-2260,-2267.5,-2275,-2282.5,-2289.72,-2296.94,-2304.16,-2311.38,-2318.6,-2325.82,-2333.04,-2340.26,-2347.48,-2354.7,-2358.625,-2362.55,-2366.475,-2370.4,-2374.325,-2378.25,-2382.175,-2386.1,-2390.025,-2393.95,-2395.255,-2396.56,-2397.865,-2399.17,-2400.475,-2401.78,-2403.085,-2404.39,-2405.695,-2407,-2409.96,-2412.92,-2415.88,-2418.84,-2421.8,-2424.76,-2427.72,-2430.68,-2433.64,-2436.6,-2440.25,-2443.9,-2447.55,-2451.2,-2454.85,-2458.5,-2462.15,-2465.8,-2469.45,-2473.1,-2475.31,-2477.52,-2479.73,-2481.94,-2484.15,-2486.36,-2488.57,-2490.78,-2492.99,-2495.2,-2495.665,-2496.13,-2496.595,-2497.06,-2497.525,-2497.99,-2498.455,-2498.92,-2499.385,-2499.85,-2501.22,-2502.59,-2503.96,-2505.33,-2506.7,-2508.07,-2509.44,-2510.81,-2512.18,-2513.55,-2514.72,-2515.89,-2517.06,-2518.23,-2519.4,-2520.57,-2521.74,-2522.91,-2524.08,-2525.25,-2526.33,-2527.41,-2528.49,-2529.57,-2530.65,-2531.73,-2532.81,-2533.89,-2534.97,-2536.05,-2537.025,-2538,-2538.975,-2539.95,-2540.925,-2541.9,-2542.875,-2543.85,-2544.825,-2545.8,-2547.31,-2548.82,-2550.33,-2551.84,-2553.35,-2554.86,-2556.37,-2557.88,-2559.39,-2560.9,-2561.605,-2562.31,-2563.015,-2563.72,-2564.425,-2565.13,-2565.835,-2566.54,-2567.245,-2567.95,-2569.025,-2570.1,-2571.175,-2572.25,-2573.325,-2574.4,-2575.475,-2576.55,-2577.625,-2578.7,-2578.91,-2579.12,-2579.33,-2579.54,-2579.75,-2579.96,-2580.17,-2580.38,-2580.59,-2580.8,-2581.305,-2581.81,-2582.315
-2074.904,-2075.492,-2076.08,-2076.698,-2077.316,-2077.934,-2078.552,-2079.17,-2079.788,-2080.406,-2081.024,-2081.642,-2082.26,-2079.746,-2077.232,-2074.718,-2072.204,-2069.69,-2067.176,-2064.662,-2062.148,-2059.634,-2057.12,-2055.86,-2054.6,-2053.34,-2052.08,-2050.82,-2049.56,-2048.3,-2047.04,-2045.78,-2044.52,-2043.348,-2042.176,-2041.004,-2039.832,-2038.66,-2037.488,-2036.316,-2035.144,-2033.972,-2032.8,-2028.932,-2025.064,-2021.196,-2017.328,-2013.46,-2009.592,-2005.724,-2001.856,-1997.988,-1994.12,-1986.664,-1979.208,-1971.752,-1964.296,-1956.84,-1949.384,-1941.928,-1934.472,-1927.016,-1919.56,-1910.69,-1901.82,-1892.95,-1884.08,-1875.21,-1866.34,-1857.47,-1848.6,-1839.73,-1830.86,-1823.468,-1816.076,-1808.684,-1801.292,-1793.9,-1786.508,-1779.116,-1771.724,-1764.332,-1756.94,-1753.31,-1749.68,-1746.05,-1742.42,-1738.79,-1735.16,-1731.53,-1727.9,-1724.27,-1720.64,-1726.62,-1732.6,-1738.58,-1744.56,-1750.54,-1756.52,-1762.5,-1768.48,-1774.46,-1780.44,-1789.306,-1798.172,-1807.038,-1815.904,-1824.77,-1833.636,-1842.502,-1851.368,-1860.234,-1869.1,-1878.386,-1887.672,-1896.958,-1906.244,-1915.53,-1924.816,-1934.102,-1943.388,-1952.674,-1961.96,-1971.432,-1980.904,-1990.376,-1999.848,-2009.32,-2018.792,-2028.264,-2037.736,-2047.208,-2056.68,-2065.668,-2074.656,-2083.644,-2092.632,-2101.62,-2110.608,-2119.596,-2128.584,-2137.572,-2146.56,-2152.564,-2158.568,-2164.572,-2170.576,-2176.58,-2182.584,-2188.588,-2194.592,-2200.596,-2206.6,-2214.28,-2221.96,-2229.64,-2237.32,-2245,-2252.68,-2260.36,-2268.04,-2275.72,-2283.4,-2290.836,-2298.272,-2305.708,-2313.144,-2320.58,-2328.016,-2335.452,-2342.888,-2350.324,-2357.76,-2361.55,-2365.34,-2369.13,-2372.92,-2376.71,-2380.5,-2384.29,-2388.08,-2391.87,-2395.66,-2396.974,-2398.288,-2399.602,-2400.916,-2402.23,-2403.544,-2404.858,-2406.172,-2407.486,-2408.8,-2411.688,-2414.576,-2417.464,-2420.352,-2423.24,-2426.128,-2429.016,-2431.904,-2434.792,-2437.68,-2441.24,-2444.8,-2448.36,-2451.92,-2455.48,-2459.04,-2462.6,-2466.16,-2469.72,-2473.28,-2475.508,-2477.736,-2479.964,-2482.192,-2484.42,-2486.648,-2488.876,-2491.104,-2493.332,-2495.56,-2496.142,-2496.724,-2497.306,-2497.888,-2498.47,-2499.052,-2499.634,-2500.216,-2500.798,-2501.38,-2502.696,-2504.012,-2505.328,-2506.644,-2507.96,-2509.276,-2510.592,-2511.908,-2513.224,-2514.54,-2515.656,-2516.772,-2517.888,-2519.004,-2520.12,-2521.236,-2522.352,-2523.468,-2524.584,-2525.7,-2526.744,-2527.788,-2528.832,-2529.876,-2530.92,-2531.964,-2533.008,-2534.052,-2535.096,-2536.14,-2537.07,-2538,-2538.93,-2539.86,-2540.79,-2541.72,-2542.65,-2543.58,-2544.51,-2545.44,-2546.968,-2548.496,-2550.024,-2551.552,-2553.08,-2554.608,-2556.136,-2557.664,-2559.192,-2560.72,-2561.434,-2562.148,-2562.862,-2563.576,-2564.29,-2565.004,-2565.718,-2566.432,-2567.146,-2567.86,-2568.89,-2569.92,-2570.95,-2571.98,-2573.01,-2574.04,-2575.07,-2576.1,-2577.13,-2578.16,-2578.388,-2578.616,-2578.844,-2579.072,-2579.3,-2579.528,-2579.756,-2579.984,-2580.212,-2580.44,-2580.954,-2581.468,-2581.982
-2072.528,-2073.044,-2073.56,-2074.061,-2074.562,-2075.063,-2075.564,-2076.065,-2076.566,-2077.067,-2077.568,-2078.069,-2078.57,-2076.047,-2073.524,-2071.001,-2068.478,-2065.955,-2063.432,-2060.909,-2058.386,-2055.863,-2053.34,-2052.17,-2051,-2049.83,-2048.66,-2047.49,-2046.32,-2045.15,-2043.98,-2042.81,-2041.64,-2040.486,-2039.332,-2038.178,-2037.024,-2035.87,-2034.716,-2033.562,-2032.408,-2031.254,-2030.1,-2026.124,-2022.148,-2018.172,-2014.196,-2010.22,-2006.244,-2002.268,-1998.292,-1994.316,-1990.34,-1982.848,-1975.356,-1967.864,-1960.372,-1952.88,-1945.388,-1937.896,-1930.404,-1922.912,-1915.42,-1906.505,-1897.59,-1888.675,-1879.76,-1870.845,-1861.93,-1853.015,-1844.1,-1835.185,-1826.27,-1819.076,-1811.882,-1804.688,-1797.494,-1790.3,-1783.106,-1775.912,-1768.718,-1761.524,-1754.33,-1750.745,-1747.16,-1743.575,-1739.99,-1736.405,-1732.82,-1729.235,-1725.65,-1722.065,-1718.48,-1724.64,-1730.8,-1736.96,-1743.12,-1749.28,-1755.44,-1761.6,-1767.76,-1773.92,-1780.08,-1789.117,-1798.154,-1807.191,-1816.228,-1825.265,-1834.302,-1843.339,-1852.376,-1861.413,-1870.45,-1879.727,-1889.004,-1898.281,-1907.558,-1916.835,-1926.112,-1935.389,-1944.666,-1953.943,-1963.22,-1972.674,-1982.128,-1991.582,-2001.036,-2010.49,-2019.944,-2029.398,-2038.852,-2048.306,-2057.76,-2066.676,-2075.592,-2084.508,-2093.424,-2102.34,-2111.256,-2120.172,-2129.088,-2138.004,-2146.92,-2152.798,-2158.676,-2164.554,-2170.432,-2176.31,-2182.188,-2188.066,-2193.944,-2199.822,-2205.7,-2213.56,-2221.42,-2229.28,-2237.14,-2245,-2252.86,-2260.72,-2268.58,-2276.44,-2284.3,-2291.952,-2299.604,-2307.256,-2314.908,-2322.56,-2330.212,-2337.864,-2345.516,-2353.168,-2360.82,-2364.475,-2368.13,-2371.785,-2375.44,-2379.095,-2382.75,-2386.405,-2390.06,-2393.715,-2397.37,-2398.693,-2400.016,-2401.339,-2402.662,-2403.985,-2405.308,-2406.631,-2407.954,-2409.277,-2410.6,-2413.416,-2416.232,-2419.048,-2421.864,-2424.68,-2427.496,-2430.312,-2433.128,-2435.944,-2438.76,-2442.23,-2445.7,-2449.17,-2452.64,-2456.11,-2459.58,-2463.05,-2466.52,-2469.99,-2473.46,-2475.706,-2477.952,-2480.198,-2482.444,-2484.69,-2486.936,-2489.182,-2491.428,-2493.674,-2495.92,-2496.619,-2497.318,-2498.017,-2498.716,-2499.415,-2500.114,-2500.813,-2501.512,-2502.211,-2502.91,-2504.172,-2505.434,-2506.696,-2507.958,-2509.22,-2510.482,-2511.744,-2513.006,-2514.268,-2515.53,-2516.592,-2517.654,-2518.716,-2519.778,-2520.84,-2521.902,-2522.964,-2524.026,-2525.088,-2526.15,-2527.158,-2528.166,-2529.174,-2530.182,-2531.19,-2532.198,-2533.206,-2534.214,-2535.222,-2536.23,-2537.115,-2538,-2538.885,-2539.77,-2540.655,-2541.54,-2542.425,-2543.31,-2544.195,-2545.08,-2546.626,-2548.172,-2549.718,-2551.264,-2552.81,-2554.356,-2555.902,-2557.448,-2558.994,-2560.54,-2561.263,-2561.986,-2562.709,-2563.432,-2564.155,-2564.878,-2565.601,-2566.324,-2567.047,-2567.77,-2568.755,-2569.74,-2570.725,-2571.71,-2572.695,-2573.68,-2574.665,-2575.65,-2576.635,-2577.62,-2577.866,-2578.112,-2578.358,-2578.604,-2578.85,-2579.096,-2579.342,-2579.588,-2579.834,-2580.08,-2580.603,-2581.126,-2581.649
-2070.152,-2070.596,-2071.04,-2071.424,-2071.808,-2072.192,-2072.576,-2072.96,-2073.344,-2073.728,-2074.112,-2074.496,-2074.88,-2072.348,-2069.816,-2067.284,-2064.752,-2062.22,-2059.688,-2057.156,-2054.624,-2052.092,-2049.56,-2048.48,-2047.4,-2046.32,-2045.24,-2044.16,-2043.08,-2042,-2040.92,-2039.84,-2038.76,-2037.624,-2036.488,-2035.352,-2034.216,-2033.08,-2031.944,-2030.808,-2029.672,-2028.536,-2027.4,-2023.316,-2019.232,-2015.148,-2011.064,-2006.98,-2002.896,-1998.812,-1994.728,-1990.644,-1986.56,-1979.032,-1971.504,-1963.976,-1956.448,-1948.92,-1941.392,-1933.864,-1926.336,-1918.808,-1911.28,-1902.32,-1893.36,-1884.4,-1875.44,-1866.48,-1857.52,-1848.56,-1839.6,-1830.64,-1821.68,-1814.684,-1807.688,-1800.692,-1793.696,-1786.7,-1779.704,-1772.708,-1765.712,-1758.716,-1751.72,-1748.18,-1744.64,-1741.1,-1737.56,-1734.02,-1730.48,-1726.94,-1723.4,-1719.86,-1716.32,-1722.66,-1729,-1735.34,-1741.68,-1748.02,-1754.36,-1760.7,-1767.04,-1773.38,-1779.72,-1788.928,-1798.136,-1807.344,-1816.552,-1825.76,-1834.968,-1844.176,-1853.384,-1862.592,-1871.8,-1881.068,-1890.336,-1899.604,-1908.872,-1918.14,-1927.408,-1936.676,-1945.944,-1955.212,-1964.48,-1973.916,-1983.352,-1992.788,-2002.224,-2011.66,-2021.096,-2030.532,-2039.968,-2049.404,-2058.84,-2067.684,-2076.528,-2085.372,-2094.216,-2103.06,-2111.904,-2120.748,-2129.592,-2138.436,-2147.28,-2153.032,-2158.784,-2164.536,-2170.288,-2176.04,-2181.792,-2187.544,-2193.296,-2199.048,-2204.8,-2212.84,-2220.88,-2228.92,-2236.96,-2245,-2253.04,-2261.08,-2269.12,-2277.16,-2285.2,-2293.068,-2300.936,-2308.804,-2316.672,-2324.54,-2332.408,-2340.276,-2348.144,-2356.012,-2363.88,-2367.4,-2370.92,-2374.44,-2377.96,-2381.48,-2385,-2388.52,-2392.04,-2395.56,-2399.08,-2400.412,-2401.744,-2403.076,-2404.408,-2405.74,-2407.072,-2408.404,-2409.736,-2411.068,-2412.4,-2415.144,-2417.888,-2420.632,-2423.376,-2426.12,-2428.864,-2431.608,-2434.352,-2437.096,-2439.84,-2443.22,-2446.6,-2449.98,-2453.36,-2456.74,-2460.12,-2463.5,-2466.88,-2470.26,-2473.64,-2475.904,-2478.168,-2480.432,-2482.696,-2484.96,-2487.224,-2489.488,-2491.752,-2494.016,-2496.28,-2497.096,-2497.912,-2498.728,-2499.544,-2500.36,-2501.176,-2501.992,-2502.808,-2503.624,-2504.44,-2505.648,-2506.856,-2508.064,-2509.272,-2510.48,-2511.688,-2512.896,-2514.104,-2515.312,-2516.52,-2517.528,-2518.536,-2519.544,-2520.552,-2521.56,-2522.568,-2523.576,-2524.584,-2525.592,-2526.6,-2527.572,-2528.544,-2529.516,-2530.488,-2531.46,-2532.432,-2533.404,-2534.376,-2535.348,-2536.32,-2537.16,-2538,-2538.84,-2539.68,-2540.52,-2541.36,-2542.2,-2543.04,-2543.88,-2544.72,-2546.284,-2547.848,-2549.412,-2550.976,-2552.54,-2554.104,-2555.668,-2557.232,-2558.796,-2560.36,-2561.092,-2561.824,-2562.556,-2563.288,-2564.02,-2564.752,-2565.484,-2566.216,-2566.948,-2567.68,-2568.62,-2569.56,-2570.5,-2571.44,-2572.38,-2573.32,-2574.26,-2575.2,-2576.14,-2577.08,-2577.344,-2577.608,-2577.872,-2578.136,-2578.4,-2578.664,-2578.928,-2579.192,-2579.456,-2579.72,-2580.252,-2580.784,-2581.316
-2067.776,-2068.148,-2068.52,-2068.787,-2069.054,-2069.321,-2069.588,-2069.855,-2070.122,-2070.389,-2070.656,-2070.923,-2071.19,-2068.649,-2066.108,-2063.567,-2061.026,-2058.485,-2055.944,-2053.403,-2050.862,-2048.321,-2045.78,-2044.79,-2043.8,-2042.81,-2041.82,-2040.83,-2039.84,-2038.85,-2037.86,-2036.87,-2035.88,-2034.762,-2033.644,-2032.526,-2031.408,-2030.29,-2029.172,-2028.054,-2026.936,-2025.818,-2024.7,-2020.508,-2016.316,-2012.124,-2007.932,-2003.74,-1999.548,-1995.356,-1991.164,-1986.972,-1982.78,-1975.216,-1967.652,-1960.088,-1952.524,-1944.96,-1937.396,-1929.832,-1922.268,-1914.704,-1907.14,-1898.135,-1889.13,-1880.125,-1871.12,-1862.115,-1853.11,-1844.105,-1835.1,-1826.095,-1817.09,-1810.292,-1803.494,-1796.696,-1789.898,-1783.1,-1776.302,-1769.504,-1762.706,-1755.908,-1749.11,-1745.615,-1742.12,-1738.625,-1735.13,-1731.635,-1728.14,-1724.645,-1721.15,-1717.655,-1714.16,-1720.68,-1727.2,-1733.72,-1740.24,-1746.76,-1753.28,-1759.8,-1766.32,-1772.84,-1779.36,-1788.739,-1798.118,-1807.497,-1816.876,-1826.255,-1835.634,-1845.013,-1854.392,-1863.771,-1873.15,-1882.409,-1891.668,-1900.927,-1910.186,-1919.445,-1928.704,-1937.963,-1947.222,-1956.481,-1965.74,-1975.158,-1984.576,-1993.994,-2003.412,-2012.83,-2022.248,-2031.666,-2041.084,-2050.502,-2059.92,-2068.692,-2077.464,-2086.236,-2095.008,-2103.78,-2112.552,-2121.324,-2130.096,-2138.868,-2147.64,-2153.266,-2158.892,-2164.518,-2170.144,-2175.77,-2181.396,-2187.022,-2192.648,-2198.274,-2203.9,-2212.12,-2220.34,-2228.56,-2236.78,-2245,-2253.22,-2261.44,-2269.66,-2277.88,-2286.1,-2294.184,-2302.268,-2310.352,-2318.436,-2326.52,-2334.604,-2342.688,-2350.772,-2358.856,-2366.94,-2370.325,-2373.71,-2377.095,-2380.48,-2383.865,-2387.25,-2390.635,-2394.02,-2397.405,-2400.79,-2402.131,-2403.472,-2404.813,-2406.154,-2407.495,-2408.836,-2410.177,-2411.518,-2412.859,-2414.2,-2416.872,-2419.544,-2422.216,-2424.888,-2427.56,-2430.232,-2432.904,-2435.576,-2438.248,-2440.92,-2444.21,-2447.5,-2450.79,-2454.08,-2457.37,-2460.66,-2463.95,-2467.24,-2470.53,-2473.82,-2476.102,-2478.384,-2480.666,-2482.948,-2485.23,-2487.512,-2489.794,-2492.076,-2494.358,-2496.64,-2497.573,-2498.506,-2499.439,-2500.372,-2501.305,-2502.238,-2503.171,-2504.104,-2505.037,-2505.97,-2507.124,-2508.278,-2509.432,-2510.586,-2511.74,-2512.894,-2514.048,-2515.202,-2516.356,-2517.51,-2518.464,-2519.418,-2520.372,-2521.326,-2522.28,-2523.234,-2524.188,-2525.142,-2526.096,-2527.05,-2527.986,-2528.922,-2529.858,-2530.794,-2531.73,-2532.666,-2533.602,-2534.538,-2535.474,-2536.41,-2537.205,-2538,-2538.795,-2539.59,-2540.385,-2541.18,-2541.975,-2542.77,-2543.565,-2544.36,-2545.942,-2547.524,-2549.106,-2550.688,-2552.27,-2553.852,-2555.434,-2557.016,-2558.598,-2560.18,-2560.921,-2561.662,-2562.403,-2563.144,-2563.885,-2564.626,-2565.367,-2566.108,-2566.849,-2567.59,-2568.485,-2569.38,-2570.275,-2571.17,-2572.065,-2572.96,-2573.855,-2574.75,-2575.645,-2576.54,-2576.822,-2577.104,-2577.386,-2577.668,-2577.95,-2578.232,-2578.514,-2578.796,-2579.078,-2579.36,-2579.901,-2580.442,-2580.983
-2065.4,-2065.7,-2066,-2066.15,-2066.3,-2066.45,-2066.6,-2066.75,-2066.9,-2067.05,-2067.2,-2067.35,-2067.5,-2064.95,-2062.4,-2059.85,-2057.3,-2054.75,-2052.2,-2049.65,-2047.1,-2044.55,-2042,-2041.1,-2040.2,-2039.3,-2038.4,-2037.5,-2036.6,-2035.7,-2034.8,-2033.9,-2033,-2031.9,-2030.8,-2029.7,-2028.6,-2027.5,-2026.4,-2025.3,-2024.2,-2023.1,-2022,-2017.7,-2013.4,-2009.1,-2004.8,-2000.5,-1996.2,-1991.9,-1987.6,-1983.3,-1979,-1971.4,-1963.8,-1956.2,-1948.6,-1941,-1933.4,-1925.8,-1918.2,-1910.6,-1903,-1893.95,-1884.9,-1875.85,-1866.8,-1857.75,-1848.7,-1839.65,-1830.6,-1821.55,-1812.5,-1805.9,-1799.3,-1792.7,-1786.1,-1779.5,-1772.9,-1766.3,-1759.7,-1753.1,-1746.5,-1743.05,-1739.6,-1736.15,-1732.7,-1729.25,-1725.8,-1722.35,-1718.9,-1715.45,-1712,-1718.7,-1725.4,-1732.1,-1738.8,-1745.5,-1752.2,-1758.9,-1765.6,-1772.3,-1779,-1788.55,-1798.1,-1807.65,-1817.2,-1826.75,-1836.3,-1845.85,-1855.4,-1864.95,-1874.5,-1883.75,-1893,-1902.25,-1911.5,-1920.75,-1930,-1939.25,-1948.5,-1957.75,-1967,-1976.4,-1985.8,-1995.2,-2004.6,-2014,-2023.4,-2032.8,-2042.2,-2051.6,-2061,-2069.7,-2078.4,-2087.1,-2095.8,-2104.5,-2113.2,-2121.9,-2130.6,-2139.3,-2148,-2153.5,-2159,-2164.5,-2170,-2175.5,-2181,-2186.5,-2192,-2197.5,-2203,-2211.4,-2219.8,-2228.2,-2236.6,-2245,-2253.4,-2261.8,-2270.2,-2278.6,-2287,-2295.3,-2303.6,-2311.9,-2320.2,-2328.5,-2336.8,-2345.1,-2353.4,-2361.7,-2370,-2373.25,-2376.5,-2379.75,-2383,-2386.25,-2389.5,-2392.75,-2396,-2399.25,-2402.5,-2403.85,-2405.2,-2406.55,-2407.9,-2409.25,-2410.6,-2411.95,-2413.3,-2414.65,-2416,-2418.6,-2421.2,-2423.8,-2426.4,-2429,-2431.6,-2434.2,-2436.8,-2439.4,-2442,-2445.2,-2448.4,-2451.6,-2454.8,-2458,-2461.2,-2464.4,-2467.6,-2470.8,-2474,-2476.3,-2478.6,-2480.9,-2483.2,-2485.5,-2487.8,-2490.1,-2492.4,-2494.7,-2497,-2498.05,-2499.1,-2500.15,-2501.2,-2502.25,-2503.3,-2504.35,-2505.4,-2506.45,-2507.5,-2508.6,-2509.7,-2510.8,-2511.9,-2513,-2514.1,-2515.2,-2516.3,-2517.4,-2518.5,-2519.4,-2520.3,-2521.2,-2522.1,-2523,-2523.9,-2524.8,-2525.7,-2526.6,-2527.5,-2528.4,-2529.3,-2530.2,-2531.1,-2532,-2532.9,-2533.8,-2534.7,-2535.6,-2536.5,-2537.25,-2538,-2538.75,-2539.5,-2540.25,-2541,-2541.75,-2542.5,-2543.25,-2544,-2545.6,-2547.2,-2548.8,-2550.4,-2552,-2553.6,-2555.2,-2556.8,-2558.4,-2560,-2560.75,-2561.5,-2562.25,-2563,-2563.75,-2564.5,-2565.25,-2566,-2566.75,-2567.5,-2568.35,-2569.2,-2570.05,-2570.9,-2571.75,-2572.6,-2573.45,-2574.3,-2575.15,-2576,-2576.3,-2576.6,-2576.9,-2577.2,-2577.5,-2577.8,-2578.1,-2578.4,-2578.7,-2579,-2579.55,-2580.1,-2580.65
-2063.024,-2063.252,-2063.48,-2063.513,-2063.546,-2063.579,-2063.612,-2063.645,-2063.678,-2063.711,-2063.744,-2063.777,-2063.81,-2061.251,-2058.692,-2056.133,-2053.574,-2051.015,-2048.456,-2045.897,-2043.338,-2040.779,-2038.22,-2037.41,-2036.6,-2035.79,-2034.98,-2034.17,-2033.36,-2032.55,-2031.74,-2030.93,-2030.12,-2029.038,-2027.956,-2026.874,-2025.792,-2024.71,-2023.628,-2022.546,-2021.464,-2020.382,-2019.3,-2014.892,-2010.484,-2006.076,-2001.668,-1997.26,-1992.852,-1988.444,-1984.036,-1979.628,-1975.22,-1967.584,-1959.948,-1952.312,-1944.676,-1937.04,-1929.404,-1921.768,-1914.132,-1906.496,-1898.86,-1889.765,-1880.67,-1871.575,-1862.48,-1853.385,-1844.29,-1835.195,-1826.1,-1817.005,-1807.91,-1801.508,-1795.106,-1788.704,-1782.302,-1775.9,-1769.498,-1763.096,-1756.694,-1750.292,-1743.89,-1740.485,-1737.08,-1733.675,-1730.27,-1726.865,-1723.46,-1720.055,-1716.65,-1713.245,-1709.84,-1716.72,-1723.6,-1730.48,-1737.36,-1744.24,-1751.12,-1758,-1764.88,-1771.76,-1778.64,-1788.361,-1798.082,-1807.803,-1817.524,-1827.245,-1836.966,-1846.687,-1856.408,-1866.129,-1875.85,-1885.091,-1894.332,-1903.573,-1912.814,-1922.055,-1931.296,-1940.537,-1949.778,-1959.019,-1968.26,-1977.642,-1987.024,-1996.406,-2005.788,-2015.17,-2024.552,-2033.934,-2043.316,-2052.698,-2062.08,-2070.708,-2079.336,-2087.964,-2096.592,-2105.22,-2113.848,-2122.476,-2131.104,-2139.732,-2148.36,-2153.734,-2159.108,-2164.482,-2169.856,-2175.23,-2180.604,-2185.978,-2191.352,-2196.726,-2202.1,-2210.68,-2219.26,-2227.84,-2236.42,-2245,-2253.58,-2262.16,-2270.74,-2279.32,-2287.9,-2296.416,-2304.932,-2313.448,-2321.964,-2330.48,-2338.996,-2347.512,-2356.028,-2364.544,-2373.06,-2376.175,-2379.29,-2382.405,-2385.52,-2388.635,-2391.75,-2394.865,-2397.98,-2401.095,-2404.21,-2405.569,-2406.928,-2408.287,-2409.646,-2411.005,-2412.364,-2413.723,-2415.082,-2416.441,-2417.8,-2420.328,-2422.856,-2425.384,-2427.912,-2430.44,-2432.968,-2435.496,-2438.024,-2440.552,-2443.08,-2446.19,-2449.3,-2452.41,-2455.52,-2458.63,-2461.74,-2464.85,-2467.96,-2471.07,-2474.18,-2476.498,-2478.816,-2481.134,-2483.452,-2485.77,-2488.088,-2490.406,-2492.724,-2495.042,-2497.36,-2498.527,-2499.694,-2500.861,-2502.028,-2503.195,-2504.362,-2505.529,-2506.696,-2507.863,-2509.03,-2510.076,-2511.122,-2512.168,-2513.214,-2514.26,-2515.306,-2516.352,-2517.398,-2518.444,-2519.49,-2520.336,-2521.182,-2522.028,-2522.874,-2523.72,-2524.566,-2525.412,-2526.258,-2527.104,-2527.95,-2528.814,-2529.678,-2530.542,-2531.406,-2532.27,-2533.134,-2533.998,-2534.862,-2535.726,-2536.59,-2537.295,-2538,-2538.705,-2539.41,-2540.115,-2540.82,-2541.525,-2542.23,-2542.935,-2543.64,-2545.258,-2546.876,-2548.494,-2550.112,-2551.73,-2553.348,-2554.966,-2556.584,-2558.202,-2559.82,-2560.579,-2561.338,-2562.097,-2562.856,-2563.615,-2564.374,-2565.133,-2565.892,-2566.651,-2567.41,-2568.215,-2569.02,-2569.825,-2570.63,-2571.435,-2572.24,-2573.045,-2573.85,-2574.655,-2575.46,-2575.778,-2576.096,-2576.414,-2576.732,-2577.05,-2577.368,-2577.686,-2578.004,-2578.322,-2578.64,-2579.199,-2579.758,-2580.317
-2060.648,-2060.804,-2060.96,-2060.876,-2060.792,-2060.708,-2060.624,-2060.54,-2060.456,-2060.372,-2060.288,-2060.204,-2060.12,-2057.552,-2054.984,-2052.416,-2049.848,-2047.28,-2044.712,-2042.144,-2039.576,-2037.008,-2034.44,-2033.72,-2033,-2032.28,-2031.56,-2030.84,-2030.12,-2029.4,-2028.68,-2027.96,-2027.24,-2026.176,-2025.112,-2024.048,-2022.984,-2021.92,-2020.856,-2019.792,-2018.728,-2017.664,-2016.6,-2012.084,-2007.568,-2003.052,-1998.536,-1994.02,-1989.504,-1984.988,-1980.472,-1975.956,-1971.44,-1963.768,-1956.096,-1948.424,-1940.752,-1933.08,-1925.408,-1917.736,-1910.064,-1902.392,-1894.72,-1885.58,-1876.44,-1867.3,-1858.16,-1849.02,-1839.88,-1830.74,-1821.6,-1812.46,-1803.32,-1797.116,-1790.912,-1784.708,-1778.504,-1772.3,-1766.096,-1759.892,-1753.688,-1747.484,-1741.28,-1737.92,-1734.56,-1731.2,-1727.84,-1724.48,-1721.12,-1717.76,-1714.4,-1711.04,-1707.68,-1714.74,-1721.8,-1728.86,-1735.92,-1742.98,-1750.04,-1757.1,-1764.16,-1771.22,-1778.28,-1788.172,-1798.064,-1807.956,-1817.848,-1827.74,-1837.632,-1847.524,-1857.416,-1867.308,-1877.2,-1886.432,-1895.664,-1904.896,-1914.128,-1923.36,-1932.592,-1941.824,-1951.056,-1960.288,-1969.52,-1978.884,-1988.248,-1997.612,-2006.976,-2016.34,-2025.704,-2035.068,-2044.432,-2053.796,-2063.16,-2071.716,-2080.272,-2088.828,-2097.384,-2105.94,-2114.496,-2123.052,-2131.608,-2140.164,-2148.72,-2153.968,-2159.216,-2164.464,-2169.712,-2174.96,-2180.208,-2185.456,-2190.704,-2195.952,-2201.2,-2209.96,-2218.72,-2227.48,-2236.24,-2245,-2253.76,-2262.52,-2271.28,-2280.04,-2288.8,-2297.532,-2306.264,-2314.996,-2323.728,-2332.46,-2341.192,-2349.924,-2358.656,-2367.388,-2376.12,-2379.1,-2382.08,-2385.06,-2388.04,-2391.02,-2394,-2396.98,-2399.96,-2402.94,-2405.92,-2407.288,-2408.656,-2410.024,-2411.392,-2412.76,-2414.128,-2415.496,-2416.864,-2418.232,-2419.6,-2422.056,-2424.512,-2426.968,-2429.424,-2431.88,-2434.336,-2436.792,-2439.248,-2441.704,-2444.16,-2447.18,-2450.2,-2453.22,-2456.24,-2459.26,-2462.28,-2465.3,-2468.32,-2471.34,-2474.36,-2476.696,-2479.032,-2481.368,-2483.704,-2486.04,-2488.376,-2490.712,-2493.048,-2495.384,-2497.72,-2499.004,-2500.288,-2501.572,-2502.856,-2504.14,-2505.424,-2506.708,-2507.992,-2509.276,-2510.56,-2511.552,-2512.544,-2513.536,-2514.528,-2515.52,-2516.512,-2517.504,-2518.496,-2519.488,-2520.48,-2521.272,-2522.064,-2522.856,-2523.648,-2524.44,-2525.232,-2526.024,-2526.816,-2527.608,-2528.4,-2529.228,-2530.056,-2530.884,-2531.712,-2532.54,-2533.368,-2534.196,-2535.024,-2535.852,-2536.68,-2537.34,-2538,-2538.66,-2539.32,-2539.98,-2540.64,-2541.3,-2541.96,-2542.62,-2543.28,-2544.916,-2546.552,-2548.188,-2549.824,-2551.46,-2553.096,-2554.732,-2556.368,-2558.004,-2559.64,-2560.408,-2561.176,-2561.944,-2562.712,-2563.48,-2564.248,-2565.016,-2565.784,-2566.552,-2567.32,-2568.08,-2568.84,-2569.6,-2570.36,-2571.12,-2571.88,-2572.64,-2573.4,-2574.16,-2574.92,-2575.256,-2575.592,-2575.928,-2576.264,-2576.6,-2576.936,-2577.272,-2577.608,-2577.944,-2578.28,-2578.848,-2579.416,-2579.984
-2058.272,-2058.356,-2058.44,-2058.239,-2058.038,-2057.837,-2057.636,-2057.435,-2057.234,-2057.033,-2056.832,-2056.631,-2056.43,-2053.853,-2051.276,-2048.699,-2046.122,-2043.545,-2040.968,-2038.391,-2035.814,-2033.237,-2030.66,-2030.03,-2029.4,-2028.77,-2028.14,-2027.51,-2026.88,-2026.25,-2025.62,-2024.99,-2024.36,-2023.314,-2022.268,-2021.222,-2020.176,-2019.13,-2018.084,-2017.038,-2015.992,-2014.946,-2013.9,-2009.276,-2004.652,-2000.028,-1995.404,-1990.78,-1986.156,-1981.532,-1976.908,-1972.284,-1967.66,-1959.952,-1952.244,-1944.536,-1936.828,-1929.12,-1921.412,-1913.704,-1905.996,-1898.288,-1890.58,-1881.395,-1872.21,-1863.025,-1853.84,-1844.655,-1835.47,-1826.285,-1817.1,-1807.915,-1798.73,-1792.724,-1786.718,-1780.712,-1774.706,-1768.7,-1762.694,-1756.688,-1750.682,-1744.676,-1738.67,-1735.355,-1732.04,-1728.725,-1725.41,-1722.095,-1718.78,-1715.465,-1712.15,-1708.835,-1705.52,-1712.76,-1720,-1727.24,-1734.48,-1741.72,-1748.96,-1756.2,-1763.44,-1770.68,-1777.92,-1787.983,-1798.046,-1808.109,-1818.172,-1828.235,-1838.298,-1848.361,-1858.424,-1868.487,-1878.55,-1887.773,-1896.996,-1906.219,-1915.442,-1924.665,-1933.888,-1943.111,-1952.334,-1961.557,-1970.78,-1980.126,-1989.472,-1998.818,-2008.164,-2017.51,-2026.856,-2036.202,-2045.548,-2054.894,-2064.24,-2072.724,-2081.208,-2089.692,-2098.176,-2106.66,-2115.144,-2123.628,-2132.112,-2140.596,-2149.08,-2154.202,-2159.324,-2164.446,-2169.568,-2174.69,-2179.812,-2184.934,-2190.056,-2195.178,-2200.3,-2209.24,-2218.18,-2227.12,-2236.06,-2245,-2253.94,-2262.88,-2271.82,-2280.76,-2289.7,-2298.648,-2307.596,-2316.544,-2325.492,-2334.44,-2343.388,-2352.336,-2361.284,-2370.232,-2379.18,-2382.025,-2384.87,-2387.715,-2390.56,-2393.405,-2396.25,-2399.095,-2401.94,-2404.785,-2407.63,-2409.007,-2410.384,-2411.761,-2413.138,-2414.515,-2415.892,-2417.269,-2418.646,-2420.023,-2421.4,-2423.784,-2426.168,-2428.552,-2430.936,-2433.32,-2435.704,-2438.088,-2440.472,-2442.856,-2445.24,-2448.17,-2451.1,-2454.03,-2456.96,-2459.89,-2462.82,-2465.75,-2468.68,-2471.61,-2474.54,-2476.894,-2479.248,-2481.602,-2483.956,-2486.31,-2488.664,-2491.018,-2493.372,-2495.726,-2498.08,-2499.481,-2500.882,-2502.283,-2503.684,-2505.085,-2506.486,-2507.887,-2509.288,-2510.689,-2512.09,-2513.028,-2513.966,-2514.904,-2515.842,-2516.78,-2517.718,-2518.656,-2519.594,-2520.532,-2521.47,-2522.208,-2522.946,-2523.684,-2524.422,-2525.16,-2525.898,-2526.636,-2527.374,-2528.112,-2528.85,-2529.642,-2530.434,-2531.226,-2532.018,-2532.81,-2533.602,-2534.394,-2535.186,-2535.978,-2536.77,-2537.385,-2538,-2538.615,-2539.23,-2539.845,-2540.46,-2541.075,-2541.69,-2542.305,-2542.92,-2544.574,-2546.228,-2547.882,-2549.536,-2551.19,-2552.844,-2554.498,-2556.152,-2557.806,-2559.46,-2560.237,-2561.014,-2561.791,-2562.568,-2563.345,-2564.122,-2564.899,-2565.676,-2566.453,-2567.23,-2567.945,-2568.66,-2569.375,-2570.09,-2570.805,-2571.52,-2572.235,-2572.95,-2573.665,-2574.38,-2574.734,-2575.088,-2575.442,-2575.796,-2576.15,-2576.504,-2576.858,-2577.212,-2577.566,-2577.92,-2578.497,-2579.074,-2579.651
-2055.896,-2055.908,-2055.92,-2055.602,-2055.284,-2054.966,-2054.648,-2054.33,-2054.012,-2053.694,-2053.376,-2053.058,-2052.74,-2050.154,-2047.568,-2044.982,-2042.396,-2039.81,-2037.224,-2034.638,-2032.052,-2029.466,-2026.88,-2026.34,-2025.8,-2025.26,-2024.72,-2024.18,-2023.64,-2023.1,-2022.56,-2022.02,-2021.48,-2020.452,-2019.424,-2018.396,-2017.368,-2016.34,-2015.312,-2014.284,-2013.256,-2012.228,-2011.2,-2006.468,-2001.736,-1997.004,-1992.272,-1987.54,-1982.808,-1978.076,-1973.344,-1968.612,-1963.88,-1956.136,-1948.392,-1940.648,-1932.904,-1925.16,-1917.416,-1909.672,-1901.928,-1894.184,-1886.44,-1877.21,-1867.98,-1858.75,-1849.52,-1840.29,-1831.06,-1821.83,-1812.6,-1803.37,-1794.14,-1788.332,-1782.524,-1776.716,-1770.908,-1765.1,-1759.292,-1753.484,-1747.676,-1741.868,-1736.06,-1732.79,-1729.52,-1726.25,-1722.98,-1719.71,-1716.44,-1713.17,-1709.9,-1706.63,-1703.36,-1710.78,-1718.2,-1725.62,-1733.04,-1740.46,-1747.88,-1755.3,-1762.72,-1770.14,-1777.56,-1787.794,-1798.028,-1808.262,-1818.496,-1828.73,-1838.964,-1849.198,-1859.432,-1869.666,-1879.9,-1889.114,-1898.328,-1907.542,-1916.756,-1925.97,-1935.184,-1944.398,-1953.612,-1962.826,-1972.04,-1981.368,-1990.696,-2000.024,-2009.352,-2018.68,-2028.008,-2037.336,-2046.664,-2055.992,-2065.32,-2073.732,-2082.144,-2090.556,-2098.968,-2107.38,-2115.792,-2124.204,-2132.616,-2141.028,-2149.44,-2154.436,-2159.432,-2164.428,-2169.424,-2174.42,-2179.416,-2184.412,-2189.408,-2194.404,-2199.4,-2208.52,-2217.64,-2226.76,-2235.88,-2245,-2254.12,-2263.24,-2272.36,-2281.48,-2290.6,-2299.764,-2308.928,-2318.092,-2327.256,-2336.42,-2345.584,-2354.748,-2363.912,-2373.076,-2382.24,-2384.95,-2387.66,-2390.37,-2393.08,-2395.79,-2398.5,-2401.21,-2403.92,-2406.63,-2409.34,-2410.726,-2412.112,-2413.498,-2414.884,-2416.27,-2417.656,-2419.042,-2420.428,-2421.814,-2423.2,-2425.512,-2427.824,-2430.136,-2432.448,-2434.76,-2437.072,-2439.384,-2441.696,-2444.008,-2446.32,-2449.16,-2452,-2454.84,-2457.68,-2460.52,-2463.36,-2466.2,-2469.04,-2471.88,-2474.72,-2477.092,-2479.464,-2481.836,-2484.208,-2486.58,-2488.952,-2491.324,-2493.696,-2496.068,-2498.44,-2499.958,-2501.476,-2502.994,-2504.512,-2506.03,-2507.548,-2509.066,-2510.584,-2512.102,-2513.62,-2514.504,-2515.388,-2516.272,-2517.156,-2518.04,-2518.924,-2519.808,-2520.692,-2521.576,-2522.46,-2523.144,-2523.828,-2524.512,-2525.196,-2525.88,-2526.564,-2527.248,-2527.932,-2528.616,-2529.3,-2530.056,-2530.812,-2531.568,-2532.324,-2533.08,-2533.836,-2534.592,-2535.348,-2536.104,-2536.86,-2537.43,-2538,-2538.57,-2539.14,-2539.71,-2540.28,-2540.85,-2541.42,-2541.99,-2542.56,-2544.232,-2545.904,-2547.576,-2549.248,-2550.92,-2552.592,-2554.264,-2555.936,-2557.608,-2559.28,-2560.066,-2560.852,-2561.638,-2562.424,-2563.21,-2563.996,-2564.782,-2565.568,-2566.354,-2567.14,-2567.81,-2568.48,-2569.15,-2569.82,-2570.49,-2571.16,-2571.83,-2572.5,-2573.17,-2573.84,-2574.212,-2574.584,-2574.956,-2575.328,-2575.7,-2576.072,-2576.444,-2576.816,-2577.188,-2577.56,-2578.146,-2578.732,-2579.318
-2053.52,-2053.46,-2053.4,-2052.965,-2052.53,-2052.095,-2051.66,-2051.225,-2050.79,-2050.355,-2049.92,-2049.485,-2049.05,-2046.455,-2043.86,-2041.265,-2038.67,-2036.075,-2033.48,-2030.885,-2028.29,-2025.695,-2023.1,-2022.65,-2022.2,-2021.75,-2021.3,-2020.85,-2020.4,-2019.95,-2019.5,-2019.05,-2018.6,-2017.59,-2016.58,-2015.57,-2014.56,-2013.55,-2012.54,-2011.53,-2010.52,-2009.51,-2008.5,-2003.66,-1998.82,-1993.98,-1989.14,-1984.3,-1979.46,-1974.62,-1969.78,-1964.94,-1960.1,-1952.32,-1944.54,-1936.76,-1928.98,-1921.2,-1913.42,-1905.64,-1897.86,-1890.08,-1882.3,-1873.025,-1863.75,-1854.475,-1845.2,-1835.925,-1826.65,-1817.375,-1808.1,-1798.825,-1789.55,-1783.94,-1778.33,-1772.72,-1767.11,-1761.5,-1755.89,-1750.28,-1744.67,-1739.06,-1733.45,-1730.225,-1727,-1723.775,-1720.55,-1717.325,-1714.1,-1710.875,-1707.65,-1704.425,-1701.2,-1708.8,-1716.4,-1724,-1731.6,-1739.2,-1746.8,-1754.4,-1762,-1769.6,-1777.2,-1787.605,-1798.01,-1808.415,-1818.82,-1829.225,-1839.63,-1850.035,-1860.44,-1870.845,-1881.25,-1890.455,-1899.66,-1908.865,-1918.07,-1927.275,-1936.48,-1945.685,-1954.89,-1964.095,-1973.3,-1982.61,-1991.92,-2001.23,-2010.54,-2019.85,-2029.16,-2038.47,-2047.78,-2057.09,-2066.4,-2074.74,-2083.08,-2091.42,-2099.76,-2108.1,-2116.44,-2124.78,-2133.12,-2141.46,-2149.8,-2154.67,-2159.54,-2164.41,-2169.28,-2174.15,-2179.02,-2183.89,-2188.76,-2193.63,-2198.5,-2207.8,-2217.1,-2226.4,-2235.7,-2245,-2254.3,-2263.6,-2272.9,-2282.2,-2291.5,-2300.88,-2310.26,-2319.64,-2329.02,-2338.4,-2347.78,-2357.16,-2366.54,-2375.92,-2385.3,-2387.875,-2390.45,-2393.025,-2395.6,-2398.175,-2400.75,-2403.325,-2405.9,-2408.475,-2411.05,-2412.445,-2413.84,-2415.235,-2416.63,-2418.025,-2419.42,-2420.815,-2422.21,-2423.605,-2425,-2427.24,-2429.48,-2431.72,-2433.96,-2436.2,-2438.44,-2440.68,-2442.92,-2445.16,-2447.4,-2450.15,-2452.9,-2455.65,-2458.4,-2461.15,-2463.9,-2466.65,-2469.4,-2472.15,-2474.9,-2477.29,-2479.68,-2482.07,-2484.46,-2486.85,-2489.24,-2491.63,-2494.02,-2496.41,-2498.8,-2500.435,-2502.07,-2503.705,-2505.34,-2506.975,-2508.61,-2510.245,-2511.88,-2513.515,-2515.15,-2515.98,-2516.81,-2517.64,-2518.47,-2519.3,-2520.13,-2520.96,-2521.79,-2522.62,-2523.45,-2524.08,-2524.71,-2525.34,-2525.97,-2526.6,-2527.23,-2527.86,-2528.49,-2529.12,-2529.75,-2530.47,-2531.19,-2531.91,-2532.63,-2533.35,-2534.07,-2534.79,-2535.51,-2536.23,-2536.95,-2537.475,-2538,-2538.525,-2539.05,-2539.575,-2540.1,-2540.625,-2541.15,-2541.675,-2542.2,-2543.89,-2545.58,-2547.27,-2548.96,-2550.65,-2552.34,-2554.03,-2555.72,-2557.41,-2559.1,-2559.895,-2560.69,-2561.485,-2562.28,-2563.075,-2563.87,-2564.665,-2565.46,-2566.255,-2567.05,-2567.675,-2568.3,-2568.925,-2569.55,-2570.175,-2570.8,-2571.425,-2572.05,-2572.675,-2573.3,-2573.69,-2574.08,-2574.47,-2574.86,-2575.25,-2575.64,-2576.03,-2576.42,-2576.81,-2577.2,-2577.795,-2578.39,-2578.985
-2050.968,-2050.824,-2050.68,-2050.116,-2049.552,-2048.988,-2048.424,-2047.86,-2047.296,-2046.732,-2046.168,-2045.604,-2045.04,-2042.476,-2039.912,-2037.348,-2034.784,-2032.22,-2029.656,-2027.092,-2024.528,-2021.964,-2019.4,-2019.044,-2018.688,-2018.332,-2017.976,-2017.62,-2017.264,-2016.908,-2016.552,-2016.196,-2015.84,-2014.872,-2013.904,-2012.936,-2011.968,-2011,-2010.032,-2009.064,-2008.096,-2007.128,-2006.16,-2001.248,-1996.336,-1991.424,-1986.512,-1981.6,-1976.688,-1971.776,-1966.864,-1961.952,-1957.04,-1949.272,-1941.504,-1933.736,-1925.968,-1918.2,-1910.432,-1902.664,-1894.896,-1887.128,-1879.36,-1870.124,-1860.888,-1851.652,-1842.416,-1833.18,-1823.944,-1814.708,-1805.472,-1796.236,-1787,-1781.496,-1775.992,-1770.488,-1764.984,-1759.48,-1753.976,-1748.472,-1742.968,-1737.464,-1731.96,-1728.748,-1725.536,-1722.324,-1719.112,-1715.9,-1712.688,-1709.476,-1706.264,-1703.052,-1699.84,-1707.572,-1715.304,-1723.036,-1730.768,-1738.5,-1746.232,-1753.964,-1761.696,-1769.428,-1777.16,-1787.676,-1798.192,-1808.708,-1819.224,-1829.74,-1840.256,-1850.772,-1861.288,-1871.804,-1882.32,-1891.5,-1900.68,-1909.86,-1919.04,-1928.22,-1937.4,-1946.58,-1955.76,-1964.94,-1974.12,-1983.42,-1992.72,-2002.02,-2011.32,-2020.62,-2029.92,-2039.22,-2048.52,-2057.82,-2067.12,-2075.444,-2083.768,-2092.092,-2100.416,-2108.74,-2117.064,-2125.388,-2133.712,-2142.036,-2150.36,-2154.988,-2159.616,-2164.244,-2168.872,-2173.5,-2178.128,-2182.756,-2187.384,-2192.012,-2196.64,-2206.14,-2215.64,-2225.14,-2234.64,-2244.14,-2253.64,-2263.14,-2272.64,-2282.14,-2291.64,-2301.232,-2310.824,-2320.416,-2330.008,-2339.6,-2349.192,-2358.784,-2368.376,-2377.968,-2387.56,-2390.008,-2392.456,-2394.904,-2397.352,-2399.8,-2402.248,-2404.696,-2407.144,-2409.592,-2412.04,-2413.452,-2414.864,-2416.276,-2417.688,-2419.1,-2420.512,-2421.924,-2423.336,-2424.748,-2426.16,-2428.352,-2430.544,-2432.736,-2434.928,-2437.12,-2439.312,-2441.504,-2443.696,-2445.888,-2448.08,-2450.772,-2453.464,-2456.156,-2458.848,-2461.54,-2464.232,-2466.924,-2469.616,-2472.308,-2475,-2477.408,-2479.816,-2482.224,-2484.632,-2487.04,-2489.448,-2491.856,-2494.264,-2496.672,-2499.08,-2500.828,-2502.576,-2504.324,-2506.072,-2507.82,-2509.568,-2511.316,-2513.064,-2514.812,-2516.56,-2517.332,-2518.104,-2518.876,-2519.648,-2520.42,-2521.192,-2521.964,-2522.736,-2523.508,-2524.28,-2524.872,-2525.464,-2526.056,-2526.648,-2527.24,-2527.832,-2528.424,-2529.016,-2529.608,-2530.2,-2530.912,-2531.624,-2532.336,-2533.048,-2533.76,-2534.472,-2535.184,-2535.896,-2536.608,-2537.32,-2537.86,-2538.4,-2538.94,-2539.48,-2540.02,-2540.56,-2541.1,-2541.64,-2542.18,-2542.72,-2544.344,-2545.968,-2547.592,-2549.216,-2550.84,-2552.464,-2554.088,-2555.712,-2557.336,-2558.96,-2559.76,-2560.56,-2561.36,-2562.16,-2562.96,-2563.76,-2564.56,-2565.36,-2566.16,-2566.96,-2567.56,-2568.16,-2568.76,-2569.36,-2569.96,-2570.56,-2571.16,-2571.76,-2572.36,-2572.96,-2573.348,-2573.736,-2574.124,-2574.512,-2574.9,-2575.288,-2575.676,-2576.064,-2576.452,-2576.84,-2577.444,-2578.048,-2578.652
-2048.196,-2047.953,-2047.71,-2047.002,-2046.294,-2045.586,-2044.878,-2044.17,-2043.462,-2042.754,-2042.046,-2041.338,-2040.63,-2038.147,-2035.664,-2033.181,-2030.698,-2028.215,-2025.732,-2023.249,-2020.766,-2018.283,-2015.8,-2015.543,-2015.286,-2015.029,-2014.772,-2014.515,-2014.258,-2014.001,-2013.744,-2013.487,-2013.23,-2012.334,-2011.438,-2010.542,-2009.646,-2008.75,-2007.854,-2006.958,-2006.062,-2005.166,-2004.27,-1999.331,-1994.392,-1989.453,-1984.514,-1979.575,-1974.636,-1969.697,-1964.758,-1959.819,-1954.88,-1947.184,-1939.488,-1931.792,-1924.096,-1916.4,-1908.704,-1901.008,-1893.312,-1885.616,-1877.92,-1868.828,-1859.736,-1850.644,-1841.552,-1832.46,-1823.368,-1814.276,-1805.184,-1796.092,-1787,-1781.487,-1775.974,-1770.461,-1764.948,-1759.435,-1753.922,-1748.409,-1742.896,-1737.383,-1731.87,-1728.631,-1725.392,-1722.153,-1718.914,-1715.675,-1712.436,-1709.197,-1705.958,-1702.719,-1699.48,-1707.284,-1715.088,-1722.892,-1730.696,-1738.5,-1746.304,-1754.108,-1761.912,-1769.716,-1777.52,-1788.072,-1798.624,-1809.176,-1819.728,-1830.28,-1840.832,-1851.384,-1861.936,-1872.488,-1883.04,-1892.175,-1901.31,-1910.445,-1919.58,-1928.715,-1937.85,-1946.985,-1956.12,-1965.255,-1974.39,-1983.69,-1992.99,-2002.29,-2011.59,-2020.89,-2030.19,-2039.49,-2048.79,-2058.09,-2067.39,-2075.768,-2084.146,-2092.524,-2100.902,-2109.28,-2117.658,-2126.036,-2134.414,-2142.792,-2151.17,-2155.411,-2159.652,-2163.893,-2168.134,-2172.375,-2176.616,-2180.857,-2185.098,-2189.339,-2193.58,-2203.305,-2213.03,-2222.755,-2232.48,-2242.205,-2251.93,-2261.655,-2271.38,-2281.105,-2290.83,-2300.629,-2310.428,-2320.227,-2330.026,-2339.825,-2349.624,-2359.423,-2369.222,-2379.021,-2388.82,-2391.151,-2393.482,-2395.813,-2398.144,-2400.475,-2402.806,-2405.137,-2407.468,-2409.799,-2412.13,-2413.569,-2415.008,-2416.447,-2417.886,-2419.325,-2420.764,-2422.203,-2423.642,-2425.081,-2426.52,-2428.694,-2430.868,-2433.042,-2435.216,-2437.39,-2439.564,-2441.738,-2443.912,-2446.086,-2448.26,-2450.934,-2453.608,-2456.282,-2458.956,-2461.63,-2464.304,-2466.978,-2469.652,-2472.326,-2475,-2477.426,-2479.852,-2482.278,-2484.704,-2487.13,-2489.556,-2491.982,-2494.408,-2496.834,-2499.26,-2501.116,-2502.972,-2504.828,-2506.684,-2508.54,-2510.396,-2512.252,-2514.108,-2515.964,-2517.82,-2518.529,-2519.238,-2519.947,-2520.656,-2521.365,-2522.074,-2522.783,-2523.492,-2524.201,-2524.91,-2525.484,-2526.058,-2526.632,-2527.206,-2527.78,-2528.354,-2528.928,-2529.502,-2530.076,-2530.65,-2531.389,-2532.128,-2532.867,-2533.606,-2534.345,-2535.084,-2535.823,-2536.562,-2537.301,-2538.04,-2538.67,-2539.3,-2539.93,-2540.56,-2541.19,-2541.82,-2542.45,-2543.08,-2543.71,-2544.34,-2545.793,-2547.246,-2548.699,-2550.152,-2551.605,-2553.058,-2554.511,-2555.964,-2557.417,-2558.87,-2559.67,-2560.47,-2561.27,-2562.07,-2562.87,-2563.67,-2564.47,-2565.27,-2566.07,-2566.87,-2567.47,-2568.07,-2568.67,-2569.27,-2569.87,-2570.47,-2571.07,-2571.67,-2572.27,-2572.87,-2573.231,-2573.592,-2573.953,-2574.314,-2574.675,-2575.036,-2575.397,-2575.758,-2576.119,-2576.48,-2577.093,-2577.706,-2578.319
-2045.424,-2045.082,-2044.74,-2043.888,-2043.036,-2042.184,-2041.332,-2040.48,-2039.628,-2038.776,-2037.924,-2037.072,-2036.22,-2033.818,-2031.416,-2029.014,-2026.612,-2024.21,-2021.808,-2019.406,-2017.004,-2014.602,-2012.2,-2012.042,-2011.884,-2011.726,-2011.568,-2011.41,-2011.252,-2011.094,-2010.936,-2010.778,-2010.62,-2009.796,-2008.972,-2008.148,-2007.324,-2006.5,-2005.676,-2004.852,-2004.028,-2003.204,-2002.38,-1997.414,-1992.448,-1987.482,-1982.516,-1977.55,-1972.584,-1967.618,-1962.652,-1957.686,-1952.72,-1945.096,-1937.472,-1929.848,-1922.224,-1914.6,-1906.976,-1899.352,-1891.728,-1884.104,-1876.48,-1867.532,-1858.584,-1849.636,-1840.688,-1831.74,-1822.792,-1813.844,-1804.896,-1795.948,-1787,-1781.478,-1775.956,-1770.434,-1764.912,-1759.39,-1753.868,-1748.346,-1742.824,-1737.302,-1731.78,-1728.514,-1725.248,-1721.982,-1718.716,-1715.45,-1712.184,-1708.918,-1705.652,-1702.386,-1699.12,-1706.996,-1714.872,-1722.748,-1730.624,-1738.5,-1746.376,-1754.252,-1762.128,-1770.004,-1777.88,-1788.468,-1799.056,-1809.644,-1820.232,-1830.82,-1841.408,-1851.996,-1862.584,-1873.172,-1883.76,-1892.85,-1901.94,-1911.03,-1920.12,-1929.21,-1938.3,-1947.39,-1956.48,-1965.57,-1974.66,-1983.96,-1993.26,-2002.56,-2011.86,-2021.16,-2030.46,-2039.76,-2049.06,-2058.36,-2067.66,-2076.092,-2084.524,-2092.956,-2101.388,-2109.82,-2118.252,-2126.684,-2135.116,-2143.548,-2151.98,-2155.834,-2159.688,-2163.542,-2167.396,-2171.25,-2175.104,-2178.958,-2182.812,-2186.666,-2190.52,-2200.47,-2210.42,-2220.37,-2230.32,-2240.27,-2250.22,-2260.17,-2270.12,-2280.07,-2290.02,-2300.026,-2310.032,-2320.038,-2330.044,-2340.05,-2350.056,-2360.062,-2370.068,-2380.074,-2390.08,-2392.294,-2394.508,-2396.722,-2398.936,-2401.15,-2403.364,-2405.578,-2407.792,-2410.006,-2412.22,-2413.686,-2415.152,-2416.618,-2418.084,-2419.55,-2421.016,-2422.482,-2423.948,-2425.414,-2426.88,-2429.036,-2431.192,-2433.348,-2435.504,-2437.66,-2439.816,-2441.972,-2444.128,-2446.284,-2448.44,-2451.096,-2453.752,-2456.408,-2459.064,-2461.72,-2464.376,-2467.032,-2469.688,-2472.344,-2475,-2477.444,-2479.888,-2482.332,-2484.776,-2487.22,-2489.664,-2492.108,-2494.552,-2496.996,-2499.44,-2501.404,-2503.368,-2505.332,-2507.296,-2509.26,-2511.224,-2513.188,-2515.152,-2517.116,-2519.08,-2519.726,-2520.372,-2521.018,-2521.664,-2522.31,-2522.956,-2523.602,-2524.248,-2524.894,-2525.54,-2526.096,-2526.652,-2527.208,-2527.764,-2528.32,-2528.876,-2529.432,-2529.988,-2530.544,-2531.1,-2531.866,-2532.632,-2533.398,-2534.164,-2534.93,-2535.696,-2536.462,-2537.228,-2537.994,-2538.76,-2539.48,-2540.2,-2540.92,-2541.64,-2542.36,-2543.08,-2543.8,-2544.52,-2545.24,-2545.96,-2547.242,-2548.524,-2549.806,-2551.088,-2552.37,-2553.652,-2554.934,-2556.216,-2557.498,-2558.78,-2559.58,-2560.38,-2561.18,-2561.98,-2562.78,-2563.58,-2564.38,-2565.18,-2565.98,-2566.78,-2567.38,-2567.98,-2568.58,-2569.18,-2569.78,-2570.38,-2570.98,-2571.58,-2572.18,-2572.78,-2573.114,-2573.448,-2573.782,-2574.116,-2574.45,-2574.784,-2575.118,-2575.452,-2575.786,-2576.12,-2576.742,-2577.364,-2577.986
-2042.652,-2042.211,-2041.77,-2040.774,-2039.778,-2038.782,-2037.786,-2036.79,-2035.794,-2034.798,-2033.802,-2032.806,-2031.81,-2029.489,-2027.168,-2024.847,-2022.526,-2020.205,-2017.884,-2015.563,-2013.242,-2010.921,-2008.6,-2008.541,-2008.482,-2008.423,-2008.364,-2008.305,-2008.246,-2008.187,-2008.128,-2008.069,-2008.01,-2007.258,-2006.506,-2005.754,-2005.002,-2004.25,-2003.498,-2002.746,-2001.994,-2001.242,-2000.49,-1995.497,-1990.504,-1985.511,-1980.518,-1975.525,-1970.532,-1965.539,-1960.546,-1955.553,-1950.56,-1943.008,-1935.456,-1927.904,-1920.352,-1912.8,-1905.248,-1897.696,-1890.144,-1882.592,-1875.04,-1866.236,-1857.432,-1848.628,-1839.824,-1831.02,-1822.216,-1813.412,-1804.608,-1795.804,-1787,-1781.469,-1775.938,-1770.407,-1764.876,-1759.345,-1753.814,-1748.283,-1742.752,-1737.221,-1731.69,-1728.397,-1725.104,-1721.811,-1718.518,-1715.225,-1711.932,-1708.639,-1705.346,-1702.053,-1698.76,-1706.708,-1714.656,-1722.604,-1730.552,-1738.5,-1746.448,-1754.396,-1762.344,-1770.292,-1778.24,-1788.864,-1799.488,-1810.112,-1820.736,-1831.36,-1841.984,-1852.608,-1863.232,-1873.856,-1884.48,-1893.525,-1902.57,-1911.615,-1920.66,-1929.705,-1938.75,-1947.795,-1956.84,-1965.885,-1974.93,-1984.23,-1993.53,-2002.83,-2012.13,-2021.43,-2030.73,-2040.03,-2049.33,-2058.63,-2067.93,-2076.416,-2084.902,-2093.388,-2101.874,-2110.36,-2118.846,-2127.332,-2135.818,-2144.304,-2152.79,-2156.257,-2159.724,-2163.191,-2166.658,-2170.125,-2173.592,-2177.059,-2180.526,-2183.993,-2187.46,-2197.635,-2207.81,-2217.985,-2228.16,-2238.335,-2248.51,-2258.685,-2268.86,-2279.035,-2289.21,-2299.423,-2309.636,-2319.849,-2330.062,-2340.275,-2350.488,-2360.701,-2370.914,-2381.127,-2391.34,-2393.437,-2395.534,-2397.631,-2399.728,-2401.825,-2403.922,-2406.019,-2408.116,-2410.213,-2412.31,-2413.803,-2415.296,-2416.789,-2418.282,-2419.775,-2421.268,-2422.761,-2424.254,-2425.747,-2427.24,-2429.378,-2431.516,-2433.654,-2435.792,-2437.93,-2440.068,-2442.206,-2444.344,-2446.482,-2448.62,-2451.258,-2453.896,-2456.534,-2459.172,-2461.81,-2464.448,-2467.086,-2469.724,-2472.362,-2475,-2477.462,-2479.924,-2482.386,-2484.848,-2487.31,-2489.772,-2492.234,-2494.696,-2497.158,-2499.62,-2501.692,-2503.764,-2505.836,-2507.908,-2509.98,-2512.052,-2514.124,-2516.196,-2518.268,-2520.34,-2520.923,-2521.506,-2522.089,-2522.672,-2523.255,-2523.838,-2524.421,-2525.004,-2525.587,-2526.17,-2526.708,-2527.246,-2527.784,-2528.322,-2528.86,-2529.398,-2529.936,-2530.474,-2531.012,-2531.55,-2532.343,-2533.136,-2533.929,-2534.722,-2535.515,-2536.308,-2537.101,-2537.894,-2538.687,-2539.48,-2540.29,-2541.1,-2541.91,-2542.72,-2543.53,-2544.34,-2545.15,-2545.96,-2546.77,-2547.58,-2548.691,-2549.802,-2550.913,-2552.024,-2553.135,-2554.246,-2555.357,-2556.468,-2557.579,-2558.69,-2559.49,-2560.29,-2561.09,-2561.89,-2562.69,-2563.49,-2564.29,-2565.09,-2565.89,-2566.69,-2567.29,-2567.89,-2568.49,-2569.09,-2569.69,-2570.29,-2570.89,-2571.49,-2572.09,-2572.69,-2572.997,-2573.304,-2573.611,-2573.918,-2574.225,-2574.532,-2574.839,-2575.146,-2575.453,-2575.76,-2576.391,-2577.022,-2577.653
-2039.88,-2039.34,-2038.8,-2037.66,-2036.52,-2035.38,-2034.24,-2033.1,-2031.96,-2030.82,-2029.68,-2028.54,-2027.4,-2025.16,-2022.92,-2020.68,-2018.44,-2016.2,-2013.96,-2011.72,-2009.48,-2007.24,-2005,-2005.04,-2005.08,-2005.12,-2005.16,-2005.2,-2005.24,-2005.28,-2005.32,-2005.36,-2005.4,-2004.72,-2004.04,-2003.36,-2002.68,-2002,-2001.32,-2000.64,-1999.96,-1999.28,-1998.6,-1993.58,-1988.56,-1983.54,-1978.52,-1973.5,-1968.48,-1963.46,-1958.44,-1953.42,-1948.4,-1940.92,-1933.44,-1925.96,-1918.48,-1911,-1903.52,-1896.04,-1888.56,-1881.08,-1873.6,-1864.94,-1856.28,-1847.62,-1838.96,-1830.3,-1821.64,-1812.98,-1804.32,-1795.66,-1787,-1781.46,-1775.92,-1770.38,-1764.84,-1759.3,-1753.76,-1748.22,-1742.68,-1737.14,-1731.6,-1728.28,-1724.96,-1721.64,-1718.32,-1715,-1711.68,-1708.36,-1705.04,-1701.72,-1698.4,-1706.42,-1714.44,-1722.46,-1730.48,-1738.5,-1746.52,-1754.54,-1762.56,-1770.58,-1778.6,-1789.26,-1799.92,-1810.58,-1821.24,-1831.9,-1842.56,-1853.22,-1863.88,-1874.54,-1885.2,-1894.2,-1903.2,-1912.2,-1921.2,-1930.2,-1939.2,-1948.2,-1957.2,-1966.2,-1975.2,-1984.5,-1993.8,-2003.1,-2012.4,-2021.7,-2031,-2040.3,-2049.6,-2058.9,-2068.2,-2076.74,-2085.28,-2093.82,-2102.36,-2110.9,-2119.44,-2127.98,-2136.52,-2145.06,-2153.6,-2156.68,-2159.76,-2162.84,-2165.92,-2169,-2172.08,-2175.16,-2178.24,-2181.32,-2184.4,-2194.8,-2205.2,-2215.6,-2226,-2236.4,-2246.8,-2257.2,-2267.6,-2278,-2288.4,-2298.82,-2309.24,-2319.66,-2330.08,-2340.5,-2350.92,-2361.34,-2371.76,-2382.18,-2392.6,-2394.58,-2396.56,-2398.54,-2400.52,-2402.5,-2404.48,-2406.46,-2408.44,-2410.42,-2412.4,-2413.92,-2415.44,-2416.96,-2418.48,-2420,-2421.52,-2423.04,-2424.56,-2426.08,-2427.6,-2429.72,-2431.84,-2433.96,-2436.08,-2438.2,-2440.32,-2442.44,-2444.56,-2446.68,-2448.8,-2451.42,-2454.04,-2456.66,-2459.28,-2461.9,-2464.52,-2467.14,-2469.76,-2472.38,-2475,-2477.48,-2479.96,-2482.44,-2484.92,-2487.4,-2489.88,-2492.36,-2494.84,-2497.32,-2499.8,-2501.98,-2504.16,-2506.34,-2508.52,-2510.7,-2512.88,-2515.06,-2517.24,-2519.42,-2521.6,-2522.12,-2522.64,-2523.16,-2523.68,-2524.2,-2524.72,-2525.24,-2525.76,-2526.28,-2526.8,-2527.32,-2527.84,-2528.36,-2528.88,-2529.4,-2529.92,-2530.44,-2530.96,-2531.48,-2532,-2532.82,-2533.64,-2534.46,-2535.28,-2536.1,-2536.92,-2537.74,-2538.56,-2539.38,-2540.2,-2541.1,-2542,-2542.9,-2543.8,-2544.7,-2545.6,-2546.5,-2547.4,-2548.3,-2549.2,-2550.14,-2551.08,-2552.02,-2552.96,-2553.9,-2554.84,-2555.78,-2556.72,-2557.66,-2558.6,-2559.4,-2560.2,-2561,-2561.8,-2562.6,-2563.4,-2564.2,-2565,-2565.8,-2566.6,-2567.2,-2567.8,-2568.4,-2569,-2569.6,-2570.2,-2570.8,-2571.4,-2572,-2572.6,-2572.88,-2573.16,-2573.44,-2573.72,-2574,-2574.28,-2574.56,-2574.84,-2575.12,-2575.4,-2576.04,-2576.68,-2577.32
-2037.108,-2036.469,-2035.83,-2034.546,-2033.262,-2031.978,-2030.694,-2029.41,-2028.126,-2026.842,-2025.558,-2024.274,-2022.99,-2020.831,-2018.672,-2016.513,-2014.354,-2012.195,-2010.036,-2007.877,-2005.718,-2003.559,-2001.4,-2001.539,-2001.678,-2001.817,-2001.956,-2002.095,-2002.234,-2002.373,-2002.512,-2002.651,-2002.79,-2002.182,-2001.574,-2000.966,-2000.358,-1999.75,-1999.142,-1998.534,-1997.926,-1997.318,-1996.71,-1991.663,-1986.616,-1981.569,-1976.522,-1971.475,-1966.428,-1961.381,-1956.334,-1951.287,-1946.24,-1938.832,-1931.424,-1924.016,-1916.608,-1909.2,-1901.792,-1894.384,-1886.976,-1879.568,-1872.16,-1863.644,-1855.128,-1846.612,-1838.096,-1829.58,-1821.064,-1812.548,-1804.032,-1795.516,-1787,-1781.451,-1775.902,-1770.353,-1764.804,-1759.255,-1753.706,-1748.157,-1742.608,-1737.059,-1731.51,-1728.163,-1724.816,-1721.469,-1718.122,-1714.775,-1711.428,-1708.081,-1704.734,-1701.387,-1698.04,-1706.132,-1714.224,-1722.316,-1730.408,-1738.5,-1746.592,-1754.684,-1762.776,-1770.868,-1778.96,-1789.656,-1800.352,-1811.048,-1821.744,-1832.44,-1843.136,-1853.832,-1864.528,-1875.224,-1885.92,-1894.875,-1903.83,-1912.785,-1921.74,-1930.695,-1939.65,-1948.605,-1957.56,-1966.515,-1975.47,-1984.77,-1994.07,-2003.37,-2012.67,-2021.97,-2031.27,-2040.57,-2049.87,-2059.17,-2068.47,-2077.064,-2085.658,-2094.252,-2102.846,-2111.44,-2120.034,-2128.628,-2137.222,-2145.816,-2154.41,-2157.103,-2159.796,-2162.489,-2165.182,-2167.875,-2170.568,-2173.261,-2175.954,-2178.647,-2181.34,-2191.965,-2202.59,-2213.215,-2223.84,-2234.465,-2245.09,-2255.715,-2266.34,-2276.965,-2287.59,-2298.217,-2308.844,-2319.471,-2330.098,-2340.725,-2351.352,-2361.979,-2372.606,-2383.233,-2393.86,-2395.723,-2397.586,-2399.449,-2401.312,-2403.175,-2405.038,-2406.901,-2408.764,-2410.627,-2412.49,-2414.037,-2415.584,-2417.131,-2418.678,-2420.225,-2421.772,-2423.319,-2424.866,-2426.413,-2427.96,-2430.062,-2432.164,-2434.266,-2436.368,-2438.47,-2440.572,-2442.674,-2444.776,-2446.878,-2448.98,-2451.582,-2454.184,-2456.786,-2459.388,-2461.99,-2464.592,-2467.194,-2469.796,-2472.398,-2475,-2477.498,-2479.996,-2482.494,-2484.992,-2487.49,-2489.988,-2492.486,-2494.984,-2497.482,-2499.98,-2502.268,-2504.556,-2506.844,-2509.132,-2511.42,-2513.708,-2515.996,-2518.284,-2520.572,-2522.86,-2523.317,-2523.774,-2524.231,-2524.688,-2525.145,-2525.602,-2526.059,-2526.516,-2526.973,-2527.43,-2527.932,-2528.434,-2528.936,-2529.438,-2529.94,-2530.442,-2530.944,-2531.446,-2531.948,-2532.45,-2533.297,-2534.144,-2534.991,-2535.838,-2536.685,-2537.532,-2538.379,-2539.226,-2540.073,-2540.92,-2541.91,-2542.9,-2543.89,-2544.88,-2545.87,-2546.86,-2547.85,-2548.84,-2549.83,-2550.82,-2551.589,-2552.358,-2553.127,-2553.896,-2554.665,-2555.434,-2556.203,-2556.972,-2557.741,-2558.51,-2559.31,-2560.11,-2560.91,-2561.71,-2562.51,-2563.31,-2564.11,-2564.91,-2565.71,-2566.51,-2567.11,-2567.71,-2568.31,-2568.91,-2569.51,-2570.11,-2570.71,-2571.31,-2571.91,-2572.51,-2572.763,-2573.016,-2573.269,-2573.522,-2573.775,-2574.028,-2574.281,-2574.534,-2574.787,-2575.04,-2575.689,-2576.338,-2576.987
-2034.336,-2033.598,-2032.86,-2031.432,-2030.004,-2028.576,-2027.148,-2025.72,-2024.292,-2022.864,-2021.436,-2020.008,-2018.58,-2016.502,-2014.424,-2012.346,-2010.268,-2008.19,-2006.112,-2004.034,-2001.956,-1999.878,-1997.8,-1998.038,-1998.276,-1998.514,-1998.752,-1998.99,-1999.228,-1999.466,-1999.704,-1999.942,-2000.18,-1999.644,-1999.108,-1998.572,-1998.036,-1997.5,-1996.964,-1996.428,-1995.892,-1995.356,-1994.82,-1989.746,-1984.672,-1979.598,-1974.524,-1969.45,-1964.376,-1959.302,-1954.228,-1949.154,-1944.08,-1936.744,-1929.408,-1922.072,-1914.736,-1907.4,-1900.064,-1892.728,-1885.392,-1878.056,-1870.72,-1862.348,-1853.976,-1845.604,-1837.232,-1828.86,-1820.488,-1812.116,-1803.744,-1795.372,-1787,-1781.442,-1775.884,-1770.326,-1764.768,-1759.21,-1753.652,-1748.094,-1742.536,-1736.978,-1731.42,-1728.046,-1724.672,-1721.298,-1717.924,-1714.55,-1711.176,-1707.802,-1704.428,-1701.054,-1697.68,-1705.844,-1714.008,-1722.172,-1730.336,-1738.5,-1746.664,-1754.828,-1762.992,-1771.156,-1779.32,-1790.052,-1800.784,-1811.516,-1822.248,-1832.98,-1843.712,-1854.444,-1865.176,-1875.908,-1886.64,-1895.55,-1904.46,-1913.37,-1922.28,-1931.19,-1940.1,-1949.01,-1957.92,-1966.83,-1975.74,-1985.04,-1994.34,-2003.64,-2012.94,-2022.24,-2031.54,-2040.84,-2050.14,-2059.44,-2068.74,-2077.388,-2086.036,-2094.684,-2103.332,-2111.98,-2120.628,-2129.276,-2137.924,-2146.572,-2155.22,-2157.526,-2159.832,-2162.138,-2164.444,-2166.75,-2169.056,-2171.362,-2173.668,-2175.974,-2178.28,-2189.13,-2199.98,-2210.83,-2221.68,-2232.53,-2243.38,-2254.23,-2265.08,-2275.93,-2286.78,-2297.614,-2308.448,-2319.282,-2330.116,-2340.95,-2351.784,-2362.618,-2373.452,-2384.286,-2395.12,-2396.866,-2398.612,-2400.358,-2402.104,-2403.85,-2405.596,-2407.342,-2409.088,-2410.834,-2412.58,-2414.154,-2415.728,-2417.302,-2418.876,-2420.45,-2422.024,-2423.598,-2425.172,-2426.746,-2428.32,-2430.404,-2432.488,-2434.572,-2436.656,-2438.74,-2440.824,-2442.908,-2444.992,-2447.076,-2449.16,-2451.744,-2454.328,-2456.912,-2459.496,-2462.08,-2464.664,-2467.248,-2469.832,-2472.416,-2475,-2477.516,-2480.032,-2482.548,-2485.064,-2487.58,-2490.096,-2492.612,-2495.128,-2497.644,-2500.16,-2502.556,-2504.952,-2507.348,-2509.744,-2512.14,-2514.536,-2516.932,-2519.328,-2521.724,-2524.12,-2524.514,-2524.908,-2525.302,-2525.696,-2526.09,-2526.484,-2526.878,-2527.272,-2527.666,-2528.06,-2528.544,-2529.028,-2529.512,-2529.996,-2530.48,-2530.964,-2531.448,-2531.932,-2532.416,-2532.9,-2533.774,-2534.648,-2535.522,-2536.396,-2537.27,-2538.144,-2539.018,-2539.892,-2540.766,-2541.64,-2542.72,-2543.8,-2544.88,-2545.96,-2547.04,-2548.12,-2549.2,-2550.28,-2551.36,-2552.44,-2553.038,-2553.636,-2554.234,-2554.832,-2555.43,-2556.028,-2556.626,-2557.224,-2557.822,-2558.42,-2559.22,-2560.02,-2560.82,-2561.62,-2562.42,-2563.22,-2564.02,-2564.82,-2565.62,-2566.42,-2567.02,-2567.62,-2568.22,-2568.82,-2569.42,-2570.02,-2570.62,-2571.22,-2571.82,-2572.42,-2572.646,-2572.872,-2573.098,-2573.324,-2573.55,-2573.776,-2574.002,-2574.228,-2574.454,-2574.68,-2575.338,-2575.996,-2576.654
-2031.564,-2030.727,-2029.89,-2028.318,-2026.746,-2025.174,-2023.602,-2022.03,-2020.458,-2018.886,-2017.314,-2015.742,-2014.17,-2012.173,-2010.176,-2008.179,-2006.182,-2004.185,-2002.188,-2000.191,-1998.194,-1996.197,-1994.2,-1994.537,-1994.874,-1995.211,-1995.548,-1995.885,-1996.222,-1996.559,-1996.896,-1997.233,-1997.57,-1997.106,-1996.642,-1996.178,-1995.714,-1995.25,-1994.786,-1994.322,-1993.858,-1993.394,-1992.93,-1987.829,-1982.728,-1977.627,-1972.526,-1967.425,-1962.324,-1957.223,-1952.122,-1947.021,-1941.92,-1934.656,-1927.392,-1920.128,-1912.864,-1905.6,-1898.336,-1891.072,-1883.808,-1876.544,-1869.28,-1861.052,-1852.824,-1844.596,-1836.368,-1828.14,-1819.912,-1811.684,-1803.456,-1795.228,-1787,-1781.433,-1775.866,-1770.299,-1764.732,-1759.165,-1753.598,-1748.031,-1742.464,-1736.897,-1731.33,-1727.929,-1724.528,-1721.127,-1717.726,-1714.325,-1710.924,-1707.523,-1704.122,-1700.721,-1697.32,-1705.556,-1713.792,-1722.028,-1730.264,-1738.5,-1746.736,-1754.972,-1763.208,-1771.444,-1779.68,-1790.448,-1801.216,-1811.984,-1822.752,-1833.52,-1844.288,-1855.056,-1865.824,-1876.592,-1887.36,-1896.225,-1905.09,-1913.955,-1922.82,-1931.685,-1940.55,-1949.415,-1958.28,-1967.145,-1976.01,-1985.31,-1994.61,-2003.91,-2013.21,-2022.51,-2031.81,-2041.11,-2050.41,-2059.71,-2069.01,-2077.712,-2086.414,-2095.116,-2103.818,-2112.52,-2121.222,-2129.924,-2138.626,-2147.328,-2156.03,-2157.949,-2159.868,-2161.787,-2163.706,-2165.625,-2167.544,-2169.463,-2171.382,-2173.301,-2175.22,-2186.295,-2197.37,-2208.445,-2219.52,-2230.595,-2241.67,-2252.745,-2263.82,-2274.895,-2285.97,-2297.011,-2308.052,-2319.093,-2330.134,-2341.175,-2352.216,-2363.257,-2374.298,-2385.339,-2396.38,-2398.009,-2399.638,-2401.267,-2402.896,-2404.525,-2406.154,-2407.783,-2409.412,-2411.041,-2412.67,-2414.271,-2415.872,-2417.473,-2419.074,-2420.675,-2422.276,-2423.877,-2425.478,-2427.079,-2428.68,-2430.746,-2432.812,-2434.878,-2436.944,-2439.01,-2441.076,-2443.142,-2445.208,-2447.274,-2449.34,-2451.906,-2454.472,-2457.038,-2459.604,-2462.17,-2464.736,-2467.302,-2469.868,-2472.434,-2475,-2477.534,-2480.068,-2482.602,-2485.136,-2487.67,-2490.204,-2492.738,-2495.272,-2497.806,-2500.34,-2502.844,-2505.348,-2507.852,-2510.356,-2512.86,-2515.364,-2517.868,-2520.372,-2522.876,-2525.38,-2525.711,-2526.042,-2526.373,-2526.704,-2527.035,-2527.366,-2527.697,-2528.028,-2528.359,-2528.69,-2529.156,-2529.622,-2530.088,-2530.554,-2531.02,-2531.486,-2531.952,-2532.418,-2532.884,-2533.35,-2534.251,-2535.152,-2536.053,-2536.954,-2537.855,-2538.756,-2539.657,-2540.558,-2541.459,-2542.36,-2543.53,-2544.7,-2545.87,-2547.04,-2548.21,-2549.38,-2550.55,-2551.72,-2552.89,-2554.06,-2554.487,-2554.914,-2555.341,-2555.768,-2556.195,-2556.622,-2557.049,-2557.476,-2557.903,-2558.33,-2559.13,-2559.93,-2560.73,-2561.53,-2562.33,-2563.13,-2563.93,-2564.73,-2565.53,-2566.33,-2566.93,-2567.53,-2568.13,-2568.73,-2569.33,-2569.93,-2570.53,-2571.13,-2571.73,-2572.33,-2572.529,-2572.728,-2572.927,-2573.126,-2573.325,-2573.524,-2573.723,-2573.922,-2574.121,-2574.32,-2574.987,-2575.654,-2576.321
